-1183.0,-1311.0,-1718.0,-2015.0,-2159.0,-2737.0,-3167.0,-3553.0,-3713.0,-4066.0,-4262.0,-4311.0,-4520.0,-4566.0,-4699.0,-4715.0,-4801.0,-4869.0,-4941.0,-4965.0,-4927.0,-4946.0,-4959.0,-4998.0,-5078.0,-5119.0,-5161.0,-5225.0,-5252.0,-5265.0,-5335.0,-5371.0,-5367.0,-5360.0,-5354.0,-5363.0,-5384.0,-5381.0,-5396.0,-5433.0,-5475.0,-5417.0,-5399.0,-5400.0,-5407.0,-5417.0,-5412.0,-5433.0,-5419.0,-5408.0,-5412.0,-5393.0,-5412.0,-5399.0,-5414.0,-5383.0,-5366.0,-5342.0,-5319.0,-5318.0,-5304.0,-5301.0,-5300.0,-5305.0,-5308.0,-5292.0,-5251.0,-5222.0,-5215.0,-5213.0,-5224.0,-5232.0,-5214.0,-5227.0,-5224.0,-5215.0,-5210.0,-5204.0,-5190.0,-5201.0,-5198.0,-5168.0,-5173.0,-5202.0,-5186.0,-5172.0,-5158.0,-5156.0,-5141.0,-5135.0,-5130.0,-5123.0,-5149.0,-5133.0,-5121.0,-5103.0,-5094.0,-5102.0,-5112.0,-5117.0,-5127.0,-5126.0,-5143.0,-5159.0,-5149.0,-5170.0,-5143.0,-5142.0,-5140.0,-5121.0,-5111.0,-5112.0,-5123.0,-5119.0,-5113.0,-5111.0,-5112.0,-5147.0,-5139.0,-5135.0,-5125.0,-5169.0,-5150.0,-5155.0,-5173.0,-5150.0,-5140.0,-5132.0,-5123.0,-5119.0,-5155.0,-5157.0,-5173.0,-5169.0,-5180.0,-5188.0,-5216.0,-5217.0,-5207.0,-5208.0,-5206.0,-5213.0,-5215.0,-5215.0,-5203.0,-5189.0,-5183.0,-5128.0,-5109.0,-5042.0,-5054.0,-5029.0,-5008.0,-4964.0,-4951.0,-4898.0,-4903.0,-4835.0,-4801.0,-4852.0,-4908.0,-4930.0,-5028.0,-4996.0,-4935.0,-4920.0,-4936.0,-4950.0,-4897.0,-4970.0,-4946.0,-5033.0,-5011.0,-5027.0,-5025.0,-5057.0,-5128.0,-5127.0,-5001.0,-5001.0,-4934.0,-5026.0,-5255.0,-5076.0,-4864.0,-5021.0,-5168.0,-5015.0,-5019.0,-4883.0,-4824.0,-5079.0,-4967.0,-4578.0,-4553.0,-4508.0,-4469.0,-4435.0,-4512.0,-4455.0,-4401.0,-4440.0,-4379.0,-4452.0,-4502.0,-4485.0,-4273.0,-4211.0,-4325.0,-4302.0,-4445.0,-4318.0,-4285.0,-4181.0,-4224.0,-4204.0,-4242.0,-4339.0,-4245.0,-4266.0,-4247.0,-4236.0,-3839.0,-4191.0,-4248.0,-4323.0,-4376.0,-4204.0,-4168.0,-4216.0,-4224.0,-4336.0,-4233.0,-4158.0,-4193.0,-4201.0,-4189.0,-4181.0,-4170.0,-4165.0,-4207.0,-4155.0,-4128.0,-4115.0,-4137.0,-4145.0,-4091.0,-4057.0,-4056.0,-3988.0,-3934.0,-3962.0,-4016.0,-4058.0,-3964.0,-3926.0,-4016.0,-3944.0,-3990.0,-4024.0,-4005.0,-4064.0,-4092.0,-3964.0,-4093.0,-4085.0,-4144.0,-4146.0,-4242.0,-4136.0,-4150.0,-4076.0,-4070.0,-3931.0,-3831.0,-3863.0,-3754.0,-3792.0,-3783.0,-3899.0,-4025.0,-3902.0,-3925.0,-4142.0,-3991.0,-3915.0,-3625.0,-4081.0,-4094.0,-4038.0,-4018.0,-3783.0,-3812.0,-3694.0,-3749.0,-3552.0,-3543.0,-3602.0,-3501.0,-3534.0,-3440.0,-3328.0,-3520.0,-3434.0,-3270.0,-3319.0,-3116.0,-3226.0,-3152.0,-3092.0,-2676.0,-2956.0,-2898.0,-3132.0,-3000.0,-3123.0,-3116.0,-2792.0,-2963.0,-2797.0,-2693.0,-2590.0,-2709.0,-2516.0,-1925.0,-2041.0,-3629.0,-2640.0,-2451.0,-2711.0,-3135.0,-3204.0,-3373.0,-3459.0,-3645.0,-3689.0,-3455.0,-3126.0,-3261.0,-3133.0,-3212.0,-3100.0,-3195.0,-3165.0,-3008.0,-3092.0,-3012.0,-2946.0,-2980.0,-3006.0,-3222.0,-3248.0,-3188.0,-3253.0,-3364.0,-3362.0,-3137.0,-3272.0,-3465.0,-3531.0,-3506.0,-3640.0,-3725.0,-3723.0,-3657.0,-3582.0,-3553.0,-3453.0,-3345.0,-3277.0,-3411.0,-3288.0,-3245.0,-3160.0,-3148.0,-2940.0,-2922.0,-2889.0,-2548.0,-3099.0,-3198.0,-3147.0,-3017.0,-3096.0,-2530.0,-3243.0,-3353.0,-3256.0,-3224.0,-3208.0,-3220.0,-3244.0,-3255.0,-3141.0,-2309.0,-2775.0,-2967.0,-2094.0,-3359.0,-3276.0,-2671.0,-1339.0,-357.0,-338.0,-314.0,-378.0,-571.0,-420.0,-250.0,-286.0
-213.0,-609.0,-665.0,-709.0,-822.0,-898.0,-1093.0,-1267.0,-1298.0,-1255.0,-1333.0,-1616.0,-2333.0,-2853.0,-3273.0,-3388.0,-3488.0,-3575.0,-3674.0,-3776.0,-3874.0,-3941.0,-3998.0,-4064.0,-4128.0,-4180.0,-4236.0,-4284.0,-4359.0,-4339.0,-4432.0,-4476.0,-4606.0,-4656.0,-4732.0,-4765.0,-4840.0,-4930.0,-4959.0,-4967.0,-4993.0,-5006.0,-5039.0,-5096.0,-5111.0,-5098.0,-5088.0,-5102.0,-5145.0,-5137.0,-5141.0,-5127.0,-5121.0,-5133.0,-5180.0,-5162.0,-5128.0,-5139.0,-5140.0,-5145.0,-5152.0,-5179.0,-5170.0,-5166.0,-5158.0,-5151.0,-5170.0,-5152.0,-5167.0,-5167.0,-5171.0,-5169.0,-5165.0,-5159.0,-5158.0,-5157.0,-5159.0,-5168.0,-5166.0,-5135.0,-5137.0,-5118.0,-5103.0,-5131.0,-5138.0,-5146.0,-5127.0,-5099.0,-5091.0,-5094.0,-5099.0,-5105.0,-5098.0,-5124.0,-5108.0,-5099.0,-5089.0,-5087.0,-5083.0,-5079.0,-5072.0,-5069.0,-5075.0,-5065.0,-5063.0,-5060.0,-5052.0,-5055.0,-5061.0,-5060.0,-5049.0,-5049.0,-5047.0,-5045.0,-5055.0,-5050.0,-5045.0,-5055.0,-5021.0,-5059.0,-5057.0,-5050.0,-5050.0,-5055.0,-5039.0,-5040.0,-5026.0,-5021.0,-5015.0,-5025.0,-5049.0,-5001.0,-4959.0,-4998.0,-4930.0,-4947.0,-4939.0,-4940.0,-4948.0,-4937.0,-4984.0,-5035.0,-5027.0,-5008.0,-5005.0,-5010.0,-5000.0,-4977.0,-4952.0,-4993.0,-4927.0,-4951.0,-4802.0,-4766.0,-4773.0,-4759.0,-4837.0,-4896.0,-4924.0,-4946.0,-4951.0,-4956.0,-4952.0,-4960.0,-4976.0,-4981.0,-5012.0,-5027.0,-4918.0,-4876.0,-4902.0,-4888.0,-4839.0,-4794.0,-4755.0,-4746.0,-4726.0,-4735.0,-4725.0,-4710.0,-4716.0,-4710.0,-4688.0,-4661.0,-4671.0,-4643.0,-4883.0,-4786.0,-4508.0,-4391.0,-4448.0,-4578.0,-4527.0,-4283.0,-4145.0,-4248.0,-4477.0,-4254.0,-4171.0,-4175.0,-4233.0,-4031.0,-4137.0,-4195.0,-3763.0,-3496.0,-3445.0,-3596.0,-3745.0,-3368.0,-3907.0,-3994.0,-4033.0,-4054.0,-4086.0,-3609.0,-3912.0,-3948.0,-4003.0,-3998.0,-3977.0,-4001.0,-4047.0,-4044.0,-4141.0,-3970.0,-4118.0,-4270.0,-4196.0,-4084.0,-4127.0,-4119.0,-4183.0,-4162.0,-4147.0,-4178.0,-4218.0,-4086.0,-4048.0,-4029.0,-4110.0,-3970.0,-3996.0,-3996.0,-4078.0,-4105.0,-4159.0,-4188.0,-4207.0,-4249.0,-4136.0,-4096.0,-4110.0,-4051.0,-4009.0,-4019.0,-3992.0,-3934.0,-4110.0,-3991.0,-4038.0,-4020.0,-4246.0,-3960.0,-3873.0,-4168.0,-3785.0,-3747.0,-3839.0,-3793.0,-3657.0,-3820.0,-3796.0,-3753.0,-3820.0,-3787.0,-3758.0,-3613.0,-3655.0,-3710.0,-3568.0,-3742.0,-3992.0,-3767.0,-3758.0,-3790.0,-3715.0,-3927.0,-3909.0,-3877.0,-3882.0,-3787.0,-3753.0,-3632.0,-3563.0,-3716.0,-3825.0,-3449.0,-2598.0,-3538.0,-3114.0,-3023.0,-3178.0,-3232.0,-3278.0,-3002.0,-3061.0,-2985.0,-3203.0,-3143.0,-2984.0,-2622.0,-1873.0,-2566.0,-3217.0,-2093.0,-2298.0,-2741.0,-2368.0,-2330.0,-2817.0,-2459.0,-3028.0,-3006.0,-3095.0,-3361.0,-3191.0,-3059.0,-3207.0,-3235.0,-3019.0,-3178.0,-3104.0,-3050.0,-3125.0,-3077.0,-3069.0,-3014.0,-3031.0,-3272.0,-3210.0,-3197.0,-2925.0,-3385.0,-3522.0,-3306.0,-3631.0,-3831.0,-3814.0,-3712.0,-3550.0,-3743.0,-3628.0,-3481.0,-3505.0,-3400.0,-3402.0,-3641.0,-3582.0,-3318.0,-3391.0,-3776.0,-3781.0,-3812.0,-3633.0,-3593.0,-3808.0,-3482.0,-3528.0,-3689.0,-3683.0,-3433.0,-3747.0,-3523.0,-3374.0,-3285.0,-3375.0,-3287.0,-3251.0,-3329.0,-3333.0,-3224.0,-3188.0,-3162.0,-1709.0,-1871.0,-3480.0,-3617.0,-3578.0,-3338.0,-3285.0,-3303.0,-3327.0,-3343.0,-3385.0,-3408.0,-3466.0,-3451.0,-3549.0,-3369.0,-3049.0,-2944.0,-2073.0,-2271.0,-1614.0,-2302.0,-2467.0,-1800.0,-1915.0,-2753.0
-25.0,-28.0,-31.0,-42.0,-50.0,-50.0,-50.0,-61.0,-58.0,-55.0,-64.0,-79.0,-94.0,-107.0,-135.0,-138.0,-172.0,-380.0,-791.0,-1254.0,-1513.0,-1926.0,-2123.0,-2362.0,-2632.0,-2857.0,-2946.0,-2978.0,-3029.0,-3112.0,-3155.0,-3230.0,-3309.0,-3390.0,-3534.0,-3671.0,-3804.0,-3868.0,-3967.0,-4002.0,-4048.0,-4131.0,-4224.0,-4267.0,-4365.0,-4450.0,-4480.0,-4514.0,-4559.0,-4571.0,-4601.0,-4633.0,-4672.0,-4691.0,-4722.0,-4748.0,-4753.0,-4772.0,-4789.0,-4812.0,-4838.0,-4843.0,-4860.0,-4861.0,-4876.0,-4879.0,-4893.0,-4896.0,-4909.0,-4916.0,-4917.0,-4920.0,-4936.0,-4930.0,-4930.0,-4933.0,-4941.0,-4939.0,-4944.0,-4945.0,-4941.0,-4950.0,-4951.0,-4951.0,-4942.0,-4938.0,-4928.0,-4911.0,-4911.0,-4906.0,-4873.0,-4894.0,-4917.0,-4929.0,-4935.0,-4940.0,-4944.0,-4950.0,-4961.0,-4953.0,-4954.0,-4950.0,-4950.0,-4947.0,-4945.0,-4942.0,-4939.0,-4935.0,-4930.0,-4928.0,-4924.0,-4913.0,-4914.0,-4911.0,-4906.0,-4909.0,-4903.0,-4901.0,-4892.0,-4888.0,-4884.0,-4879.0,-4876.0,-4875.0,-4866.0,-4865.0,-4875.0,-4857.0,-4856.0,-4766.0,-4723.0,-4852.0,-4888.0,-4891.0,-4886.0,-4889.0,-4886.0,-4895.0,-4884.0,-4895.0,-4915.0,-4888.0,-4892.0,-4915.0,-4893.0,-4873.0,-4850.0,-4851.0,-4853.0,-4865.0,-4877.0,-4792.0,-4766.0,-4822.0,-4811.0,-4735.0,-4742.0,-4712.0,-4678.0,-4711.0,-4705.0,-4663.0,-4762.0,-4754.0,-4806.0,-4711.0,-4628.0,-4605.0,-4562.0,-4516.0,-4463.0,-4507.0,-4489.0,-4448.0,-4460.0,-4521.0,-4561.0,-4431.0,-4574.0,-4484.0,-4712.0,-4510.0,-4371.0,-4310.0,-4361.0,-4090.0,-4254.0,-4327.0,-4378.0,-4451.0,-4402.0,-4051.0,-4365.0,-4372.0,-4262.0,-4167.0,-4078.0,-4161.0,-4107.0,-4023.0,-3777.0,-4127.0,-4125.0,-4371.0,-4360.0,-4443.0,-4433.0,-4360.0,-4431.0,-4421.0,-4503.0,-4414.0,-4548.0,-4360.0,-4380.0,-4538.0,-4727.0,-4366.0,-4490.0,-4302.0,-4449.0,-4274.0,-4123.0,-4107.0,-4103.0,-4181.0,-4184.0,-4183.0,-4136.0,-4158.0,-4133.0,-4143.0,-4101.0,-4155.0,-4195.0,-4204.0,-4104.0,-4083.0,-4227.0,-4285.0,-4317.0,-4289.0,-4202.0,-4174.0,-4224.0,-4108.0,-4073.0,-4258.0,-4057.0,-3869.0,-4123.0,-3874.0,-3803.0,-3867.0,-3841.0,-3752.0,-3865.0,-3937.0,-3754.0,-3836.0,-3712.0,-3712.0,-3594.0,-3405.0,-3483.0,-3631.0,-3227.0,-3649.0,-3717.0,-3624.0,-3639.0,-3776.0,-3780.0,-3532.0,-3991.0,-4030.0,-4208.0,-4075.0,-4130.0,-4100.0,-3998.0,-3712.0,-3694.0,-3534.0,-3381.0,-3224.0,-3780.0,-3493.0,-3619.0,-3806.0,-3898.0,-3525.0,-3722.0,-3657.0,-3469.0,-3669.0,-3426.0,-3486.0,-3464.0,-3178.0,-3342.0,-3240.0,-3039.0,-3102.0,-2989.0,-2733.0,-2792.0,-2945.0,-2582.0,-2111.0,-2782.0,-3594.0,-3565.0,-2355.0,-2489.0,-2936.0,-2493.0,-3149.0,-3161.0,-2977.0,-3148.0,-3317.0,-2609.0,-3076.0,-3094.0,-3354.0,-3540.0,-3360.0,-3085.0,-3088.0,-2757.0,-3499.0,-3068.0,-3239.0,-3531.0,-3264.0,-3257.0,-3426.0,-3498.0,-3520.0,-3423.0,-3700.0,-3493.0,-3658.0,-3551.0,-3465.0,-3484.0,-3722.0,-3648.0,-3595.0,-3648.0,-3712.0,-3649.0,-3739.0,-3660.0,-3800.0,-3622.0,-4041.0,-3793.0,-3691.0,-3900.0,-3675.0,-3779.0,-3661.0,-3887.0,-4022.0,-3868.0,-4094.0,-4011.0,-3832.0,-4039.0,-3938.0,-3804.0,-3757.0,-3675.0,-3712.0,-3798.0,-3785.0,-3926.0,-3833.0,-3763.0,-3727.0,-3773.0,-3671.0,-3634.0,-3708.0,-3890.0,-3884.0,-3885.0,-3852.0,-3852.0,-3819.0,-3815.0,-3956.0,-3950.0,-3988.0,-3854.0,-3784.0,-2263.0,-2869.0,-3665.0,-3943.0,-4109.0,-4267.0,-3899.0,-2170.0,-2384.0,-2825.0,-4053.0,-4085.0
258.0,165.0,217.0,97.0,165.0,83.0,108.0,92.0,139.0,46.0,38.0,15.0,-14.0,-17.0,-24.0,-22.0,-33.0,-36.0,-32.0,-76.0,-68.0,-42.0,-46.0,-58.0,-72.0,-78.0,-100.0,-132.0,-152.0,-386.0,-941.0,-1094.0,-1306.0,-1558.0,-1875.0,-2119.0,-2267.0,-2321.0,-2457.0,-2541.0,-2600.0,-2688.0,-2783.0,-2862.0,-2954.0,-3052.0,-3117.0,-3194.0,-3241.0,-3281.0,-3319.0,-3373.0,-3414.0,-3474.0,-3537.0,-3628.0,-3709.0,-3830.0,-3904.0,-3997.0,-4079.0,-4141.0,-4186.0,-4225.0,-4248.0,-4300.0,-4372.0,-4394.0,-4428.0,-4521.0,-4559.0,-4608.0,-4598.0,-4618.0,-4645.0,-4625.0,-4654.0,-4645.0,-4641.0,-4646.0,-4655.0,-4667.0,-4640.0,-4605.0,-4611.0,-4625.0,-4641.0,-4612.0,-4619.0,-4623.0,-4632.0,-4626.0,-4588.0,-4588.0,-4573.0,-4588.0,-4541.0,-4546.0,-4542.0,-4555.0,-4560.0,-4560.0,-4573.0,-4569.0,-4557.0,-4597.0,-4615.0,-4627.0,-4612.0,-4620.0,-4661.0,-4650.0,-4637.0,-4665.0,-4635.0,-4640.0,-4640.0,-4610.0,-4555.0,-4502.0,-4544.0,-4654.0,-4671.0,-4696.0,-4769.0,-4780.0,-4805.0,-4836.0,-4808.0,-4733.0,-4802.0,-4834.0,-4891.0,-4919.0,-4869.0,-4718.0,-4766.0,-4710.0,-4732.0,-4718.0,-4559.0,-4578.0,-4613.0,-4601.0,-4554.0,-4484.0,-4462.0,-4472.0,-4574.0,-4627.0,-4589.0,-4680.0,-4669.0,-4707.0,-4646.0,-4609.0,-4589.0,-4595.0,-4693.0,-4495.0,-3971.0,-4180.0,-4259.0,-4471.0,-4511.0,-4555.0,-4623.0,-4469.0,-4401.0,-4377.0,-4238.0,-4398.0,-4517.0,-4649.0,-4577.0,-4323.0,-4600.0,-4760.0,-4947.0,-4866.0,-4734.0,-4525.0,-4634.0,-4434.0,-4188.0,-4189.0,-4322.0,-4408.0,-4396.0,-4468.0,-4367.0,-4181.0,-4066.0,-3985.0,-3892.0,-3630.0,-3573.0,-3309.0,-3180.0,-3041.0,-3003.0,-2412.0,-2766.0,-3043.0,-4345.0,-4941.0,-5231.0,-4310.0,-4584.0,-4332.0,-3095.0,-2993.0,-3113.0,-3298.0,-3469.0,-3456.0,-3855.0,-3629.0,-3937.0,-4109.0,-4338.0,-4426.0,-4157.0,-4104.0,-4219.0,-4326.0,-4282.0,-4407.0,-4404.0,-4186.0,-4254.0,-4159.0,-3889.0,-3967.0,-4037.0,-4555.0,-4242.0,-4066.0,-3865.0,-3752.0,-4087.0,-4015.0,-4170.0,-4102.0,-4134.0,-3941.0,-3972.0,-3750.0,-3909.0,-3699.0,-3924.0,-3888.0,-4003.0,-3894.0,-3881.0,-4098.0,-4047.0,-4146.0,-4137.0,-4015.0,-4166.0,-4213.0,-4047.0,-4070.0,-3919.0,-3738.0,-3948.0,-3881.0,-3902.0,-3869.0,-3836.0,-3790.0,-3819.0,-4008.0,-3931.0,-3931.0,-3497.0,-2811.0,-3577.0,-3831.0,-3862.0,-3770.0,-3573.0,-3705.0,-3373.0,-2950.0,-3126.0,-3280.0,-3368.0,-3614.0,-3782.0,-3808.0,-3675.0,-3657.0,-3617.0,-3623.0,-3705.0,-3577.0,-3527.0,-3923.0,-4058.0,-4086.0,-4065.0,-3955.0,-4052.0,-3937.0,-3541.0,-3681.0,-3514.0,-3636.0,-3421.0,-3345.0,-3173.0,-3607.0,-3604.0,-3263.0,-3319.0,-3258.0,-3287.0,-3332.0,-3066.0,-2712.0,-3265.0,-3309.0,-3171.0,-3063.0,-3222.0,-3114.0,-3135.0,-3049.0,-2807.0,-2802.0,-3197.0,-3444.0,-3375.0,-2929.0,-3729.0,-2951.0,-2862.0,-2818.0,-2746.0,-3704.0,-2773.0,-3214.0,-3083.0,-2668.0,-3040.0,-3695.0,-3057.0,-3397.0,-3331.0,-3525.0,-3608.0,-3589.0,-3612.0,-3441.0,-3656.0,-3555.0,-3504.0,-3634.0,-3779.0,-3662.0,-3527.0,-3658.0,-3643.0,-3759.0,-4012.0,-3955.0,-3973.0,-3986.0,-4033.0,-3990.0,-3953.0,-3840.0,-3789.0,-3864.0,-3715.0,-3771.0,-3987.0,-4143.0,-4258.0,-4280.0,-4354.0,-4394.0,-4319.0,-4301.0,-4105.0,-4039.0,-3900.0,-3961.0,-4104.0,-4018.0,-4048.0,-4137.0,-4246.0,-4412.0,-4348.0,-4426.0,-4443.0,-4453.0,-4503.0,-4530.0,-4369.0,-4293.0,-4132.0,-4010.0,-4139.0,-3989.0,-4104.0,-3965.0
98.0,100.0,125.0,117.0,131.0,165.0,127.0,127.0,142.0,148.0,174.0,65.0,33.0,31.0,39.0,36.0,46.0,10.0,5.0,4.0,-6.0,9.0,8.0,-10.0,-15.0,-19.0,-24.0,-26.0,-25.0,-30.0,-43.0,-56.0,-60.0,-66.0,-71.0,-68.0,-74.0,-86.0,-93.0,-120.0,-213.0,-794.0,-1119.0,-1375.0,-1610.0,-1796.0,-1909.0,-2005.0,-2121.0,-2281.0,-2418.0,-2572.0,-2762.0,-2849.0,-2885.0,-2944.0,-3000.0,-3095.0,-3144.0,-3207.0,-3271.0,-3334.0,-3418.0,-3507.0,-3557.0,-3616.0,-3668.0,-3710.0,-3758.0,-3808.0,-3837.0,-3866.0,-3882.0,-3910.0,-3929.0,-3933.0,-3984.0,-3997.0,-4017.0,-4004.0,-4028.0,-4051.0,-4088.0,-4114.0,-4120.0,-4133.0,-4126.0,-4099.0,-4098.0,-4096.0,-4097.0,-4078.0,-4124.0,-4012.0,-3984.0,-3966.0,-3954.0,-3929.0,-3925.0,-3903.0,-3900.0,-3903.0,-3913.0,-3921.0,-3943.0,-3962.0,-4013.0,-3988.0,-3953.0,-3945.0,-4006.0,-4105.0,-4178.0,-4267.0,-4257.0,-4382.0,-4377.0,-4439.0,-4486.0,-4466.0,-4424.0,-4352.0,-3465.0,-4345.0,-4404.0,-4351.0,-4325.0,-4379.0,-4602.0,-4687.0,-4703.0,-4500.0,-4501.0,-4372.0,-4435.0,-4504.0,-4271.0,-4315.0,-4338.0,-4168.0,-3685.0,-4465.0,-4430.0,-4459.0,-4536.0,-4502.0,-4566.0,-4408.0,-4446.0,-4459.0,-4091.0,-3789.0,-3772.0,-3739.0,-3702.0,-3516.0,-3309.0,-3080.0,-3028.0,-2975.0,-2929.0,-2963.0,-2967.0,-2811.0,-2814.0,-3234.0,-3382.0,-3493.0,-3536.0,-3559.0,-3594.0,-3694.0,-3631.0,-3642.0,-3648.0,-3671.0,-3704.0,-3669.0,-3706.0,-3675.0,-3662.0,-3670.0,-3870.0,-4007.0,-4110.0,-4127.0,-4141.0,-4199.0,-4138.0,-4125.0,-4127.0,-4097.0,-3737.0,-3869.0,-4085.0,-4125.0,-4121.0,-4128.0,-4125.0,-3924.0,-3867.0,-3725.0,-3628.0,-3581.0,-3775.0,-3702.0,-3319.0,-3680.0,-3713.0,-3563.0,-3562.0,-3535.0,-3470.0,-3455.0,-3322.0,-3059.0,-2675.0,-2861.0,-3422.0,-3647.0,-3809.0,-3950.0,-4005.0,-4123.0,-4196.0,-4267.0,-4318.0,-4291.0,-4190.0,-4052.0,-4163.0,-4392.0,-4087.0,-4256.0,-4277.0,-4235.0,-4066.0,-4417.0,-4399.0,-4433.0,-4474.0,-4572.0,-4319.0,-4297.0,-4298.0,-4326.0,-4310.0,-4443.0,-3798.0,-4202.0,-4069.0,-4130.0,-4107.0,-4117.0,-4251.0,-4195.0,-4081.0,-4779.0,-4619.0,-4540.0,-4576.0,-4320.0,-4293.0,-4217.0,-4189.0,-4198.0,-4055.0,-4058.0,-4172.0,-4012.0,-4045.0,-4075.0,-4108.0,-4172.0,-4326.0,-4073.0,-4309.0,-4021.0,-4277.0,-4176.0,-4132.0,-4085.0,-4096.0,-4116.0,-4124.0,-3914.0,-4169.0,-3920.0,-4116.0,-4170.0,-3944.0,-3781.0,-3768.0,-3798.0,-4067.0,-3896.0,-3816.0,-3845.0,-3882.0,-3885.0,-3920.0,-3671.0,-3735.0,-3878.0,-3736.0,-3774.0,-3758.0,-3734.0,-3764.0,-3610.0,-3743.0,-3685.0,-3697.0,-3614.0,-3582.0,-3656.0,-3603.0,-3466.0,-3758.0,-3470.0,-3457.0,-3457.0,-3367.0,-3365.0,-3392.0,-3158.0,-3257.0,-3232.0,-3405.0,-3363.0,-3338.0,-3562.0,-3477.0,-3728.0,-3360.0,-3300.0,-3750.0,-3494.0,-2944.0,-3167.0,-3813.0,-2902.0,-3266.0,-3214.0,-3173.0,-2875.0,-3046.0,-3289.0,-3289.0,-3307.0,-2755.0,-3042.0,-3512.0,-2751.0,-3516.0,-3802.0,-3728.0,-3799.0,-3608.0,-3012.0,-3297.0,-3368.0,-3657.0,-3333.0,-2889.0,-3506.0,-3632.0,-3558.0,-3561.0,-3372.0,-3410.0,-3302.0,-4101.0,-3882.0,-3863.0,-3859.0,-3518.0,-3774.0,-3661.0,-3715.0,-3739.0,-3799.0,-3996.0,-4029.0,-3946.0,-3916.0,-4063.0,-4147.0,-4258.0,-4392.0,-4397.0,-4420.0,-4460.0,-4277.0,-4268.0,-4212.0,-4328.0,-4048.0,-4172.0,-4131.0,-4251.0,-4203.0,-4160.0,-4147.0,-4108.0,-4171.0,-4195.0,-4152.0,-4162.0,-4180.0
118.0,130.0,124.0,110.0,133.0,151.0,164.0,204.0,265.0,247.0,316.0,280.0,190.0,399.0,161.0,99.0,138.0,145.0,266.0,416.0,399.0,354.0,408.0,244.0,357.0,301.0,394.0,225.0,257.0,124.0,42.0,6.0,-6.0,-7.0,-7.0,-8.0,-7.0,7.0,6.0,-6.0,-21.0,-33.0,-55.0,-74.0,-91.0,-104.0,-124.0,-138.0,-133.0,-146.0,-162.0,-165.0,-211.0,-288.0,-501.0,-722.0,-812.0,-933.0,-983.0,-1051.0,-1156.0,-1394.0,-1691.0,-1983.0,-2136.0,-2321.0,-2516.0,-2696.0,-2981.0,-3145.0,-3162.0,-3181.0,-3243.0,-3281.0,-3237.0,-3237.0,-3275.0,-3270.0,-3339.0,-3423.0,-3476.0,-3473.0,-3426.0,-3483.0,-3463.0,-3396.0,-3393.0,-3446.0,-3434.0,-3410.0,-3417.0,-3426.0,-3515.0,-3495.0,-3468.0,-3446.0,-3554.0,-3844.0,-3838.0,-3855.0,-3882.0,-3874.0,-3840.0,-3816.0,-3829.0,-3825.0,-3850.0,-3851.0,-3848.0,-3835.0,-3820.0,-3749.0,-3728.0,-3694.0,-3643.0,-3691.0,-3893.0,-3762.0,-3765.0,-3764.0,-3713.0,-3487.0,-4111.0,-4042.0,-4044.0,-4150.0,-4176.0,-4200.0,-4562.0,-4584.0,-4466.0,-4105.0,-4101.0,-4087.0,-4124.0,-3986.0,-3827.0,-3798.0,-3759.0,-3657.0,-3516.0,-3335.0,-3136.0,-2828.0,-2366.0,-2260.0,-2451.0,-2392.0,-2215.0,-2210.0,-2076.0,-2083.0,-1781.0,-1820.0,-1849.0,-1646.0,-1025.0,-928.0,-1426.0,-1465.0,-1330.0,-648.0,-616.0,-624.0,-722.0,-1114.0,-1199.0,-1160.0,-1153.0,-1111.0,-1223.0,-1080.0,-1011.0,-993.0,-1002.0,-1040.0,-1107.0,-1235.0,-1352.0,-1509.0,-1652.0,-1823.0,-2003.0,-2330.0,-2805.0,-2860.0,-3156.0,-3264.0,-3451.0,-3449.0,-3477.0,-3554.0,-3610.0,-3857.0,-3963.0,-4018.0,-4066.0,-4012.0,-4126.0,-4119.0,-4125.0,-4077.0,-4067.0,-4064.0,-4023.0,-3851.0,-3729.0,-3423.0,-2987.0,-3142.0,-2997.0,-2363.0,-2336.0,-2270.0,-2228.0,-1996.0,-2110.0,-2276.0,-2484.0,-3042.0,-3200.0,-3640.0,-4086.0,-4259.0,-4230.0,-4240.0,-4423.0,-4466.0,-4652.0,-4607.0,-4656.0,-4627.0,-4618.0,-4685.0,-4610.0,-4765.0,-5022.0,-4780.0,-4605.0,-5006.0,-5095.0,-4668.0,-4717.0,-4660.0,-5144.0,-5067.0,-4516.0,-5125.0,-4870.0,-4626.0,-4380.0,-4951.0,-4584.0,-4502.0,-4742.0,-4613.0,-4390.0,-4941.0,-4685.0,-4709.0,-4527.0,-4685.0,-4597.0,-4746.0,-4697.0,-4576.0,-4539.0,-4313.0,-4621.0,-4459.0,-4893.0,-4596.0,-4686.0,-4449.0,-4637.0,-4401.0,-4536.0,-4532.0,-4435.0,-4501.0,-4383.0,-4471.0,-4412.0,-4444.0,-4390.0,-4374.0,-4370.0,-4495.0,-4387.0,-4249.0,-4269.0,-4074.0,-4379.0,-4169.0,-4270.0,-4275.0,-4174.0,-4147.0,-4262.0,-4068.0,-4003.0,-4157.0,-4116.0,-4083.0,-3797.0,-3876.0,-4717.0,-4127.0,-4138.0,-3906.0,-3663.0,-3931.0,-3768.0,-3803.0,-3781.0,-3760.0,-3771.0,-3653.0,-3895.0,-3805.0,-3808.0,-3642.0,-3680.0,-3358.0,-3669.0,-3560.0,-3870.0,-3560.0,-3664.0,-3262.0,-3221.0,-3249.0,-3235.0,-3127.0,-3191.0,-3065.0,-3083.0,-3217.0,-3151.0,-2978.0,-3011.0,-2940.0,-2953.0,-2767.0,-2805.0,-3444.0,-3052.0,-3089.0,-2861.0,-2873.0,-3054.0,-2982.0,-3240.0,-3146.0,-2899.0,-3072.0,-3160.0,-3069.0,-3325.0,-3204.0,-3336.0,-3179.0,-3355.0,-3372.0,-3666.0,-3302.0,-3398.0,-3476.0,-3601.0,-3593.0,-3652.0,-3622.0,-3678.0,-3749.0,-3672.0,-3796.0,-3675.0,-3765.0,-3783.0,-3773.0,-3809.0,-3835.0,-3882.0,-3796.0,-3792.0,-3996.0,-3816.0,-3868.0,-3987.0,-3932.0,-4126.0,-3834.0,-3916.0,-4043.0,-4028.0,-3954.0,-3892.0,-4071.0,-4150.0,-4366.0,-4477.0,-3974.0,-4372.0,-4138.0,-3435.0,-4196.0,-4385.0,-4403.0,-4362.0,-4502.0
179.0,185.0,230.0,240.0,238.0,315.0,264.0,352.0,360.0,368.0,369.0,403.0,389.0,420.0,381.0,415.0,333.0,425.0,375.0,439.0,491.0,664.0,664.0,613.0,728.0,580.0,526.0,532.0,471.0,734.0,555.0,635.0,745.0,790.0,619.0,666.0,601.0,708.0,734.0,794.0,910.0,1088.0,1091.0,269.0,132.0,93.0,17.0,19.0,7.0,5.0,-35.0,-41.0,-55.0,-64.0,-77.0,-93.0,-108.0,-123.0,-129.0,-142.0,-163.0,-200.0,-256.0,-610.0,-852.0,-949.0,-1025.0,-1117.0,-1260.0,-1436.0,-1741.0,-2032.0,-2320.0,-2436.0,-2508.0,-2591.0,-2690.0,-2770.0,-2831.0,-2931.0,-3112.0,-3428.0,-3431.0,-3492.0,-3562.0,-3613.0,-3633.0,-3669.0,-3699.0,-3717.0,-3713.0,-3769.0,-3775.0,-3785.0,-3837.0,-3827.0,-3898.0,-3921.0,-3973.0,-3964.0,-3991.0,-3986.0,-4045.0,-3880.0,-3750.0,-3774.0,-3856.0,-3981.0,-4068.0,-4056.0,-3932.0,-3808.0,-3717.0,-3804.0,-3863.0,-3886.0,-3846.0,-3814.0,-3814.0,-3803.0,-3849.0,-3799.0,-3798.0,-3805.0,-3840.0,-3996.0,-3969.0,-3910.0,-3894.0,-3949.0,-3897.0,-3965.0,-3890.0,-3875.0,-4081.0,-4221.0,-4309.0,-4406.0,-4536.0,-4586.0,-4730.0,-4363.0,-4393.0,-4416.0,-4442.0,-4453.0,-4439.0,-4456.0,-4458.0,-3673.0,-3262.0,-3338.0,-3910.0,-4077.0,-4165.0,-4163.0,-4154.0,-4112.0,-4102.0,-4104.0,-4117.0,-4145.0,-4170.0,-4158.0,-4307.0,-4292.0,-4258.0,-4257.0,-4225.0,-4158.0,-4092.0,-4025.0,-3944.0,-3893.0,-3936.0,-3915.0,-3646.0,-3598.0,-3467.0,-3113.0,-3097.0,-3031.0,-2865.0,-2836.0,-2725.0,-2602.0,-2389.0,-2582.0,-2713.0,-2867.0,-3065.0,-3178.0,-2978.0,-2994.0,-2979.0,-3175.0,-2335.0,-1861.0,-1840.0,-1839.0,-1863.0,-1781.0,-1835.0,-1720.0,-1840.0,-2064.0,-2586.0,-2331.0,-1848.0,-2755.0,-3227.0,-3656.0,-4354.0,-3277.0,-3159.0,-3226.0,-3392.0,-3620.0,-3883.0,-4052.0,-4180.0,-4271.0,-4305.0,-4477.0,-4592.0,-4639.0,-4668.0,-4463.0,-4493.0,-4492.0,-5020.0,-5193.0,-5167.0,-5127.0,-5238.0,-4982.0,-4729.0,-4677.0,-4766.0,-5254.0,-4938.0,-5226.0,-5100.0,-5197.0,-5209.0,-5179.0,-4959.0,-4827.0,-4626.0,-4810.0,-4937.0,-4636.0,-4908.0,-4773.0,-4803.0,-4908.0,-4996.0,-4636.0,-4929.0,-4879.0,-4940.0,-4747.0,-4885.0,-4816.0,-4999.0,-4511.0,-4571.0,-4687.0,-4589.0,-4739.0,-4656.0,-4759.0,-4552.0,-4694.0,-4542.0,-4629.0,-4493.0,-4586.0,-4638.0,-4647.0,-4548.0,-4589.0,-4518.0,-4601.0,-4504.0,-4500.0,-4492.0,-4512.0,-4578.0,-4558.0,-4463.0,-4401.0,-4544.0,-4493.0,-4404.0,-4194.0,-4233.0,-4264.0,-4354.0,-4353.0,-4224.0,-4116.0,-4430.0,-4326.0,-4093.0,-4132.0,-4202.0,-4249.0,-4213.0,-4041.0,-3843.0,-4315.0,-3981.0,-3663.0,-4019.0,-4004.0,-3950.0,-3970.0,-3642.0,-3838.0,-4506.0,-4420.0,-4115.0,-4205.0,-3933.0,-3874.0,-3731.0,-3881.0,-3643.0,-3468.0,-3306.0,-3489.0,-3409.0,-3029.0,-3190.0,-3491.0,-3460.0,-3330.0,-3223.0,-3458.0,-3345.0,-3415.0,-3167.0,-3127.0,-3041.0,-2719.0,-3569.0,-3252.0,-2779.0,-2997.0,-2616.0,-2599.0,-2763.0,-2786.0,-2664.0,-4101.0,-3250.0,-3296.0,-3513.0,-2780.0,-2969.0,-3313.0,-3627.0,-3616.0,-3758.0,-3838.0,-3867.0,-3662.0,-3691.0,-3665.0,-3550.0,-3786.0,-3554.0,-3563.0,-3697.0,-3771.0,-3503.0,-3773.0,-3912.0,-3785.0,-3618.0,-4271.0,-3894.0,-3972.0,-3810.0,-3685.0,-4050.0,-3507.0,-4163.0,-4262.0,-4177.0,-3962.0,-4219.0,-4115.0,-4015.0,-4283.0,-4278.0,-4173.0,-4179.0,-4137.0,-4071.0,-4000.0,-4131.0,-4189.0,-4193.0,-4221.0,-4229.0,-4281.0,-4263.0,-4388.0
159.0,209.0,475.0,483.0,512.0,529.0,419.0,474.0,355.0,268.0,276.0,263.0,320.0,530.0,305.0,317.0,470.0,478.0,343.0,472.0,744.0,595.0,541.0,783.0,995.0,815.0,967.0,877.0,954.0,904.0,786.0,828.0,858.0,877.0,953.0,1022.0,893.0,1001.0,1057.0,1124.0,992.0,664.0,459.0,637.0,545.0,377.0,375.0,246.0,180.0,284.0,330.0,94.0,18.0,28.0,104.0,-32.0,-43.0,-51.0,-60.0,-69.0,-84.0,-94.0,-106.0,-123.0,-131.0,-138.0,-148.0,-166.0,-194.0,-219.0,-280.0,-355.0,-443.0,-626.0,-1019.0,-1251.0,-1470.0,-1746.0,-2040.0,-2124.0,-2225.0,-2275.0,-2421.0,-2625.0,-2659.0,-2671.0,-2577.0,-2716.0,-2749.0,-2792.0,-2755.0,-2633.0,-2639.0,-2683.0,-2661.0,-2634.0,-2604.0,-2576.0,-2572.0,-2524.0,-2527.0,-2421.0,-2333.0,-2441.0,-2412.0,-2429.0,-2454.0,-2492.0,-2581.0,-2605.0,-2630.0,-2667.0,-2732.0,-2898.0,-2829.0,-2942.0,-3017.0,-3145.0,-3233.0,-3312.0,-3313.0,-3442.0,-3552.0,-3711.0,-3785.0,-3807.0,-3982.0,-4173.0,-4210.0,-3905.0,-3267.0,-2394.0,-2432.0,-3423.0,-2327.0,-2304.0,-2187.0,-2008.0,-3184.0,-2894.0,-1542.0,-4002.0,-4756.0,-4753.0,-4720.0,-4682.0,-4646.0,-4568.0,-4574.0,-4570.0,-4626.0,-4623.0,-4597.0,-4625.0,-4628.0,-4627.0,-4629.0,-4656.0,-4669.0,-4671.0,-4710.0,-4718.0,-4749.0,-4818.0,-4842.0,-4704.0,-4573.0,-4567.0,-4390.0,-4369.0,-4504.0,-3916.0,-3722.0,-3925.0,-4116.0,-3920.0,-3957.0,-4051.0,-4005.0,-4091.0,-4244.0,-4315.0,-4503.0,-4503.0,-4557.0,-4588.0,-4617.0,-4650.0,-4701.0,-4723.0,-4739.0,-4749.0,-4623.0,-4640.0,-4788.0,-4866.0,-4818.0,-4839.0,-4885.0,-4965.0,-5118.0,-5186.0,-5209.0,-5264.0,-5295.0,-5079.0,-4950.0,-5088.0,-4326.0,-4804.0,-4590.0,-4887.0,-5109.0,-5106.0,-5175.0,-5271.0,-5600.0,-5593.0,-5738.0,-5613.0,-5628.0,-5543.0,-5649.0,-5458.0,-5505.0,-5562.0,-5486.0,-5412.0,-5221.0,-5232.0,-5077.0,-5079.0,-4981.0,-4999.0,-4850.0,-4824.0,-4786.0,-4844.0,-4746.0,-4823.0,-4801.0,-4803.0,-4849.0,-4797.0,-4692.0,-4830.0,-4701.0,-4684.0,-4861.0,-4892.0,-5180.0,-4870.0,-4916.0,-4634.0,-4835.0,-4579.0,-4903.0,-5076.0,-4647.0,-4774.0,-4815.0,-4832.0,-4857.0,-4791.0,-4594.0,-4833.0,-4775.0,-4681.0,-4714.0,-4638.0,-4586.0,-4616.0,-4720.0,-4817.0,-4460.0,-4600.0,-4592.0,-4916.0,-4491.0,-4206.0,-4520.0,-4574.0,-4221.0,-4757.0,-4245.0,-4213.0,-4512.0,-4831.0,-4002.0,-4128.0,-4252.0,-4313.0,-4273.0,-4341.0,-4354.0,-4536.0,-4253.0,-4366.0,-4156.0,-4411.0,-4257.0,-4272.0,-4319.0,-4189.0,-4351.0,-4177.0,-4125.0,-4177.0,-4173.0,-3985.0,-4072.0,-4170.0,-4081.0,-3965.0,-4064.0,-4017.0,-4023.0,-3961.0,-4141.0,-4269.0,-3633.0,-3442.0,-3480.0,-3782.0,-3934.0,-3414.0,-3591.0,-3997.0,-3988.0,-3930.0,-4221.0,-4151.0,-4154.0,-3744.0,-3252.0,-3340.0,-3081.0,-2922.0,-3408.0,-3271.0,-3011.0,-3088.0,-3137.0,-3248.0,-2897.0,-3019.0,-3660.0,-3004.0,-2955.0,-2826.0,-3174.0,-3136.0,-3395.0,-3082.0,-3041.0,-3258.0,-3226.0,-3197.0,-3235.0,-3513.0,-3242.0,-3578.0,-3597.0,-3521.0,-3612.0,-3716.0,-3642.0,-3813.0,-3814.0,-3892.0,-3753.0,-3712.0,-3940.0,-3714.0,-3846.0,-3682.0,-3833.0,-3850.0,-3760.0,-3719.0,-3651.0,-3705.0,-4111.0,-4026.0,-4158.0,-4052.0,-4361.0,-4174.0,-4049.0,-3986.0,-3901.0,-3906.0,-3974.0,-4145.0,-3964.0,-3789.0,-3972.0,-4262.0,-3992.0,-4002.0,-4491.0,-4566.0,-4595.0,-4724.0,-4583.0,-4458.0,-4440.0,-4278.0,-4183.0,-4284.0
245.0,247.0,269.0,289.0,252.0,217.0,223.0,269.0,329.0,504.0,559.0,543.0,542.0,599.0,626.0,698.0,729.0,607.0,668.0,740.0,799.0,751.0,828.0,740.0,905.0,935.0,903.0,949.0,1069.0,1143.0,1175.0,1120.0,1251.0,791.0,808.0,764.0,865.0,848.0,799.0,832.0,802.0,792.0,889.0,1043.0,977.0,885.0,659.0,839.0,938.0,1015.0,951.0,849.0,1095.0,317.0,183.0,38.0,96.0,34.0,43.0,3.0,-17.0,-19.0,-23.0,-31.0,-33.0,-39.0,-48.0,-53.0,-57.0,-60.0,-66.0,-71.0,-74.0,-79.0,-84.0,-92.0,-98.0,-105.0,-108.0,-109.0,-111.0,-119.0,-123.0,-135.0,-161.0,-213.0,-700.0,-1335.0,-1626.0,-1731.0,-1795.0,-1872.0,-1966.0,-2009.0,-2058.0,-2115.0,-2095.0,-2137.0,-2156.0,-2220.0,-2218.0,-2219.0,-2231.0,-2212.0,-2175.0,-2140.0,-2187.0,-2178.0,-2188.0,-2255.0,-2522.0,-2536.0,-2585.0,-2626.0,-2674.0,-2743.0,-2909.0,-2786.0,-2813.0,-2766.0,-2831.0,-2924.0,-3057.0,-2982.0,-3055.0,-3065.0,-3124.0,-3186.0,-3254.0,-3352.0,-3507.0,-3725.0,-3759.0,-3756.0,-3832.0,-3870.0,-3835.0,-3888.0,-3954.0,-3969.0,-3963.0,-3952.0,-3966.0,-3989.0,-4065.0,-4120.0,-4135.0,-4111.0,-4170.0,-4177.0,-4161.0,-4189.0,-4187.0,-4198.0,-4169.0,-4193.0,-4217.0,-4214.0,-4194.0,-4167.0,-4115.0,-4127.0,-4119.0,-4160.0,-4167.0,-4169.0,-4229.0,-4301.0,-4391.0,-4472.0,-4503.0,-4542.0,-4580.0,-4604.0,-4675.0,-4723.0,-4801.0,-4852.0,-4781.0,-4826.0,-4891.0,-4840.0,-4860.0,-4757.0,-4818.0,-4809.0,-4776.0,-4818.0,-4811.0,-4847.0,-4899.0,-4988.0,-5014.0,-5067.0,-5139.0,-5190.0,-5218.0,-5279.0,-5246.0,-5355.0,-5262.0,-5403.0,-5179.0,-5273.0,-5498.0,-5367.0,-5402.0,-5435.0,-5147.0,-5411.0,-5378.0,-5346.0,-5363.0,-5599.0,-5569.0,-5602.0,-5638.0,-5584.0,-5517.0,-5609.0,-5597.0,-5680.0,-5450.0,-5538.0,-5638.0,-5426.0,-5485.0,-5083.0,-4931.0,-4840.0,-5392.0,-5360.0,-4920.0,-5467.0,-5559.0,-5233.0,-5118.0,-4673.0,-5157.0,-5460.0,-5595.0,-5258.0,-5133.0,-4896.0,-4491.0,-5083.0,-4693.0,-4621.0,-5051.0,-4891.0,-4904.0,-4733.0,-4022.0,-4430.0,-5213.0,-4591.0,-4976.0,-4973.0,-4672.0,-4915.0,-4770.0,-4907.0,-4578.0,-4797.0,-4753.0,-4737.0,-4651.0,-4663.0,-4381.0,-4749.0,-4620.0,-4690.0,-4829.0,-4543.0,-5093.0,-4991.0,-4831.0,-4648.0,-5067.0,-5040.0,-5135.0,-5169.0,-4586.0,-4260.0,-4839.0,-4648.0,-4433.0,-4636.0,-4493.0,-4701.0,-4584.0,-4724.0,-4707.0,-4932.0,-4838.0,-5018.0,-4584.0,-4264.0,-4211.0,-4364.0,-4807.0,-4774.0,-4420.0,-4434.0,-4486.0,-4461.0,-4662.0,-4452.0,-4468.0,-4283.0,-4187.0,-4212.0,-4222.0,-3814.0,-3890.0,-3978.0,-4168.0,-3885.0,-3842.0,-3793.0,-3429.0,-4216.0,-4445.0,-4637.0,-3196.0,-3811.0,-4173.0,-3784.0,-3497.0,-3592.0,-3626.0,-3402.0,-3744.0,-3618.0,-4053.0,-3720.0,-3693.0,-3877.0,-3741.0,-3167.0,-3316.0,-3295.0,-3432.0,-3014.0,-2991.0,-3390.0,-3193.0,-2613.0,-2813.0,-2952.0,-3078.0,-3346.0,-3243.0,-3311.0,-3540.0,-3319.0,-3559.0,-3565.0,-3764.0,-3726.0,-3692.0,-3962.0,-3938.0,-3967.0,-4082.0,-4220.0,-3714.0,-3950.0,-4376.0,-4148.0,-3983.0,-3954.0,-4185.0,-4291.0,-4186.0,-4168.0,-4139.0,-4260.0,-4298.0,-4439.0,-3907.0,-4255.0,-4032.0,-4137.0,-4259.0,-4376.0,-4357.0,-3488.0,-4110.0,-4620.0,-4678.0,-4479.0,-4301.0,-4424.0,-4522.0,-4248.0,-4575.0,-4569.0,-4457.0,-4608.0,-4387.0,-4494.0,-4746.0,-4904.0,-4998.0,-4734.0,-4672.0,-4692.0,-4811.0,-4292.0
396.0,351.0,326.0,404.0,396.0,307.0,349.0,308.0,293.0,239.0,231.0,302.0,323.0,376.0,365.0,347.0,355.0,303.0,363.0,422.0,317.0,295.0,290.0,416.0,531.0,519.0,493.0,473.0,468.0,647.0,697.0,662.0,540.0,485.0,397.0,508.0,585.0,533.0,586.0,552.0,613.0,465.0,514.0,536.0,526.0,507.0,488.0,579.0,641.0,610.0,617.0,617.0,635.0,582.0,685.0,612.0,688.0,649.0,693.0,623.0,623.0,534.0,579.0,594.0,576.0,672.0,757.0,707.0,747.0,752.0,1060.0,933.0,786.0,806.0,644.0,644.0,585.0,719.0,718.0,712.0,716.0,798.0,926.0,71.0,-7.0,-17.0,-25.0,-34.0,-41.0,-45.0,-51.0,-56.0,-62.0,-69.0,-71.0,-77.0,-86.0,-92.0,-100.0,-111.0,-109.0,-110.0,-107.0,-112.0,-115.0,-114.0,-123.0,-135.0,-136.0,-136.0,-141.0,-137.0,-128.0,-119.0,-118.0,-121.0,-166.0,-909.0,-1539.0,-2079.0,-2311.0,-2505.0,-2619.0,-2662.0,-2737.0,-2832.0,-2871.0,-2885.0,-2984.0,-3069.0,-3100.0,-3110.0,-3089.0,-3075.0,-3180.0,-3287.0,-3238.0,-3310.0,-3370.0,-3646.0,-3618.0,-3615.0,-3653.0,-3688.0,-3763.0,-3826.0,-3891.0,-3896.0,-3928.0,-3970.0,-3987.0,-4018.0,-4023.0,-4059.0,-4082.0,-4098.0,-4106.0,-4101.0,-4144.0,-4152.0,-4156.0,-4166.0,-4159.0,-4186.0,-4207.0,-4209.0,-4202.0,-4211.0,-4191.0,-4208.0,-4239.0,-4267.0,-4273.0,-4289.0,-4345.0,-4379.0,-4435.0,-4450.0,-4468.0,-4526.0,-4584.0,-4632.0,-4690.0,-4727.0,-4769.0,-4804.0,-4853.0,-4818.0,-4831.0,-4899.0,-4932.0,-5085.0,-5002.0,-4999.0,-5064.0,-5036.0,-5038.0,-5144.0,-5113.0,-5127.0,-5159.0,-5158.0,-5184.0,-5254.0,-5244.0,-5259.0,-5296.0,-5363.0,-5402.0,-5351.0,-5384.0,-5445.0,-5480.0,-5440.0,-5419.0,-5500.0,-5500.0,-5338.0,-5419.0,-5426.0,-5363.0,-5500.0,-5512.0,-5462.0,-5451.0,-5600.0,-5494.0,-5560.0,-5556.0,-5534.0,-5468.0,-5506.0,-5419.0,-5289.0,-5539.0,-5495.0,-5532.0,-5567.0,-5435.0,-5604.0,-5576.0,-5659.0,-5742.0,-5733.0,-5917.0,-5900.0,-5418.0,-5930.0,-5572.0,-5347.0,-5316.0,-4904.0,-5246.0,-5457.0,-5637.0,-5500.0,-5009.0,-5668.0,-5774.0,-5053.0,-5015.0,-5262.0,-4672.0,-5104.0,-4724.0,-5052.0,-5012.0,-5559.0,-5263.0,-4828.0,-5047.0,-5137.0,-5251.0,-5141.0,-5150.0,-5274.0,-5112.0,-5028.0,-4956.0,-5021.0,-5192.0,-5034.0,-4872.0,-5069.0,-5230.0,-5155.0,-4931.0,-4881.0,-4469.0,-4894.0,-4589.0,-4429.0,-5067.0,-4880.0,-4672.0,-4847.0,-4764.0,-4831.0,-4669.0,-4529.0,-4574.0,-4235.0,-4456.0,-4541.0,-4389.0,-4519.0,-4406.0,-4254.0,-4267.0,-4365.0,-4290.0,-4523.0,-4545.0,-4428.0,-4592.0,-4362.0,-4746.0,-4934.0,-4592.0,-4847.0,-4969.0,-4778.0,-4392.0,-4303.0,-4323.0,-4134.0,-4149.0,-3961.0,-4134.0,-3968.0,-3967.0,-3813.0,-3809.0,-3661.0,-3441.0,-3724.0,-3512.0,-3712.0,-3429.0,-3478.0,-3383.0,-3228.0,-3309.0,-3222.0,-3152.0,-2794.0,-3314.0,-3360.0,-2693.0,-3032.0,-3467.0,-3452.0,-3643.0,-3641.0,-3140.0,-3142.0,-3044.0,-3329.0,-3763.0,-3231.0,-3286.0,-3746.0,-3713.0,-3940.0,-4173.0,-3649.0,-3802.0,-3893.0,-3824.0,-4053.0,-4037.0,-4114.0,-3980.0,-4126.0,-4309.0,-4242.0,-4439.0,-3891.0,-4332.0,-4747.0,-4762.0,-4394.0,-4600.0,-4659.0,-4872.0,-4383.0,-4701.0,-4829.0,-4644.0,-4421.0,-4115.0,-4498.0,-4143.0,-4447.0,-4377.0,-4536.0,-4646.0,-4436.0,-4875.0,-4741.0,-4782.0,-4507.0,-4530.0,-4574.0,-4598.0,-4674.0,-4640.0,-4817.0,-5173.0,-5112.0
340.0,366.0,395.0,361.0,334.0,306.0,303.0,325.0,377.0,387.0,356.0,341.0,366.0,309.0,339.0,292.0,297.0,310.0,372.0,325.0,370.0,322.0,325.0,310.0,302.0,254.0,270.0,267.0,271.0,373.0,349.0,388.0,385.0,411.0,365.0,415.0,402.0,407.0,428.0,396.0,449.0,470.0,456.0,438.0,433.0,463.0,437.0,431.0,379.0,457.0,431.0,466.0,526.0,500.0,515.0,555.0,566.0,646.0,589.0,535.0,518.0,590.0,693.0,717.0,731.0,768.0,610.0,628.0,728.0,725.0,1209.0,866.0,894.0,929.0,922.0,1113.0,898.0,842.0,837.0,828.0,883.0,899.0,883.0,998.0,1028.0,1180.0,1047.0,1348.0,955.0,930.0,1020.0,1012.0,1062.0,1244.0,931.0,863.0,834.0,783.0,704.0,724.0,416.0,620.0,279.0,462.0,335.0,255.0,398.0,161.0,79.0,321.0,95.0,24.0,395.0,88.0,12.0,17.0,5.0,-43.0,-17.0,-18.0,-21.0,-26.0,-27.0,-42.0,-89.0,-764.0,-1247.0,-1589.0,-1741.0,-1894.0,-2025.0,-2121.0,-2144.0,-2289.0,-2589.0,-2625.0,-2578.0,-2583.0,-3168.0,-3455.0,-3546.0,-3545.0,-3617.0,-3696.0,-3749.0,-3810.0,-3807.0,-3920.0,-3959.0,-3998.0,-4085.0,-4126.0,-4155.0,-4163.0,-4178.0,-4219.0,-4299.0,-4303.0,-4305.0,-4326.0,-4347.0,-4304.0,-4282.0,-4311.0,-4372.0,-4367.0,-4420.0,-4426.0,-4441.0,-4451.0,-4484.0,-4500.0,-4515.0,-4507.0,-4505.0,-4483.0,-4470.0,-4454.0,-4436.0,-4419.0,-4389.0,-4403.0,-4403.0,-4385.0,-4393.0,-4376.0,-4419.0,-4434.0,-4446.0,-4479.0,-4488.0,-4489.0,-4488.0,-4508.0,-4521.0,-4548.0,-4596.0,-4635.0,-4674.0,-4730.0,-4798.0,-4864.0,-4909.0,-4910.0,-4907.0,-4923.0,-4959.0,-5009.0,-5063.0,-5110.0,-5143.0,-5161.0,-5169.0,-5172.0,-5184.0,-5260.0,-5362.0,-5137.0,-5218.0,-5249.0,-5176.0,-5235.0,-5238.0,-5187.0,-5231.0,-5182.0,-5270.0,-5254.0,-5378.0,-5415.0,-5442.0,-5215.0,-5355.0,-5227.0,-5404.0,-5338.0,-5441.0,-5447.0,-5575.0,-5654.0,-5674.0,-5492.0,-5630.0,-5467.0,-5399.0,-5437.0,-5217.0,-5093.0,-5147.0,-5627.0,-5067.0,-4621.0,-4954.0,-5535.0,-5178.0,-4989.0,-4925.0,-5029.0,-5105.0,-5102.0,-4992.0,-4648.0,-5233.0,-4892.0,-5201.0,-5095.0,-5025.0,-5003.0,-4907.0,-5325.0,-5599.0,-5393.0,-5514.0,-5231.0,-4966.0,-5027.0,-5156.0,-5021.0,-4891.0,-4902.0,-4935.0,-5026.0,-4850.0,-4829.0,-4907.0,-5158.0,-5058.0,-4730.0,-4816.0,-4629.0,-4769.0,-4871.0,-4578.0,-4629.0,-4970.0,-4774.0,-4800.0,-4725.0,-4484.0,-4540.0,-4550.0,-4492.0,-4443.0,-4562.0,-4512.0,-4786.0,-4654.0,-4657.0,-4815.0,-5068.0,-4830.0,-4960.0,-5074.0,-4898.0,-5164.0,-4546.0,-5307.0,-4659.0,-4505.0,-4208.0,-4190.0,-4357.0,-4375.0,-4309.0,-4308.0,-4419.0,-4016.0,-4176.0,-4261.0,-4381.0,-3994.0,-4095.0,-3970.0,-4365.0,-3811.0,-3858.0,-3986.0,-3946.0,-4467.0,-4243.0,-4710.0,-5061.0,-3264.0,-4297.0,-4279.0,-4317.0,-4026.0,-3803.0,-4049.0,-3960.0,-4191.0,-4071.0,-4112.0,-3988.0,-3913.0,-3627.0,-3670.0,-3663.0,-3218.0,-3142.0,-3228.0,-3038.0,-2571.0,-2752.0,-3119.0,-3222.0,-3129.0,-2696.0,-3149.0,-3544.0,-3975.0,-3878.0,-3324.0,-3431.0,-3800.0,-3608.0,-3992.0,-4196.0,-4494.0,-4458.0,-4378.0,-4367.0,-4175.0,-4448.0,-4491.0,-3866.0,-3955.0,-3936.0,-4103.0,-4274.0,-4488.0,-4312.0,-4771.0,-4437.0,-4832.0,-4576.0,-4775.0,-4863.0,-5005.0,-4942.0,-4934.0,-4499.0,-4604.0,-4798.0,-5026.0,-5107.0,-4947.0,-4851.0,-4973.0,-4915.0
399.0,376.0,301.0,344.0,324.0,409.0,608.0,634.0,553.0,510.0,642.0,581.0,542.0,456.0,409.0,487.0,401.0,476.0,491.0,457.0,423.0,441.0,436.0,372.0,421.0,374.0,515.0,505.0,513.0,439.0,480.0,393.0,398.0,417.0,369.0,414.0,383.0,411.0,324.0,363.0,452.0,428.0,410.0,444.0,458.0,466.0,514.0,491.0,530.0,572.0,561.0,656.0,558.0,597.0,588.0,666.0,625.0,620.0,716.0,769.0,675.0,754.0,820.0,904.0,1016.0,937.0,1075.0,1058.0,1189.0,1286.0,1172.0,1107.0,1113.0,1154.0,949.0,789.0,701.0,701.0,680.0,670.0,626.0,673.0,780.0,710.0,796.0,698.0,695.0,761.0,810.0,742.0,749.0,923.0,827.0,792.0,845.0,1076.0,913.0,677.0,723.0,803.0,814.0,742.0,748.0,403.0,294.0,291.0,433.0,537.0,1035.0,894.0,732.0,626.0,507.0,396.0,279.0,553.0,407.0,220.0,294.0,186.0,206.0,374.0,337.0,25.0,55.0,14.0,-21.0,-32.0,-39.0,-78.0,-756.0,-1061.0,-1278.0,-1422.0,-1372.0,-1357.0,-1221.0,-1024.0,-849.0,-217.0,-71.0,-62.0,-56.0,-65.0,-63.0,-142.0,-547.0,-2605.0,-3468.0,-3628.0,-3725.0,-3780.0,-3817.0,-3867.0,-3900.0,-3922.0,-3955.0,-3986.0,-4013.0,-4031.0,-4046.0,-4069.0,-4029.0,-4117.0,-4120.0,-4127.0,-4128.0,-4151.0,-4149.0,-4145.0,-4152.0,-4163.0,-4156.0,-4166.0,-4179.0,-4178.0,-4179.0,-4177.0,-4179.0,-4181.0,-4192.0,-4185.0,-4141.0,-4121.0,-4135.0,-4123.0,-4112.0,-4108.0,-4104.0,-4109.0,-4126.0,-4131.0,-4138.0,-4142.0,-4175.0,-4234.0,-4289.0,-4337.0,-4414.0,-4467.0,-4508.0,-4544.0,-4569.0,-4595.0,-4633.0,-4688.0,-4734.0,-4770.0,-4804.0,-4834.0,-4856.0,-4881.0,-4913.0,-4949.0,-4979.0,-4868.0,-4992.0,-5061.0,-5117.0,-5106.0,-5090.0,-5097.0,-5107.0,-5119.0,-5132.0,-5170.0,-5217.0,-5258.0,-5093.0,-5091.0,-5217.0,-5309.0,-5212.0,-5387.0,-5363.0,-5361.0,-5234.0,-5218.0,-5557.0,-5803.0,-5668.0,-5639.0,-5428.0,-5414.0,-5434.0,-5605.0,-5376.0,-5364.0,-5398.0,-5394.0,-5301.0,-5343.0,-5544.0,-5689.0,-5465.0,-5197.0,-5382.0,-5490.0,-5305.0,-5634.0,-5659.0,-5825.0,-5421.0,-5663.0,-5458.0,-5659.0,-5548.0,-5756.0,-5491.0,-5549.0,-5688.0,-5746.0,-5328.0,-6087.0,-4625.0,-5035.0,-5117.0,-5375.0,-4647.0,-4729.0,-4889.0,-5090.0,-4885.0,-4858.0,-5405.0,-5272.0,-4696.0,-5380.0,-5080.0,-4542.0,-4372.0,-3941.0,-5271.0,-5050.0,-5035.0,-4968.0,-4824.0,-4928.0,-5144.0,-4539.0,-4609.0,-4530.0,-4753.0,-4721.0,-4707.0,-4440.0,-4330.0,-4616.0,-4702.0,-4673.0,-4200.0,-4219.0,-3976.0,-4066.0,-4252.0,-4505.0,-3985.0,-4369.0,-3982.0,-4004.0,-4223.0,-3996.0,-3938.0,-4006.0,-4195.0,-3956.0,-3965.0,-3992.0,-3929.0,-3995.0,-3865.0,-3682.0,-3735.0,-3715.0,-3778.0,-3865.0,-3560.0,-3570.0,-3570.0,-3598.0,-3720.0,-3654.0,-3919.0,-3604.0,-3700.0,-3568.0,-3772.0,-3491.0,-3316.0,-3439.0,-3070.0,-3406.0,-3479.0,-3186.0,-3241.0,-3073.0,-2776.0,-2900.0,-2468.0,-3136.0,-3270.0,-2504.0,-2556.0,-2853.0,-3098.0,-3462.0,-3556.0,-3276.0,-3831.0,-3682.0,-3718.0,-3996.0,-3842.0,-3418.0,-3365.0,-3672.0,-3676.0,-3925.0,-3864.0,-3811.0,-3788.0,-4052.0,-4246.0,-4230.0,-4300.0,-4425.0,-4421.0,-4471.0,-4400.0,-4449.0,-4197.0,-4163.0,-4286.0,-4141.0,-4347.0,-4257.0,-4171.0,-4433.0,-4173.0,-4253.0,-4191.0,-4247.0,-4496.0,-4286.0,-4079.0,-4529.0,-4560.0,-4579.0,-4680.0,-4740.0
169.0,174.0,179.0,301.0,238.0,292.0,294.0,367.0,330.0,327.0,341.0,317.0,363.0,432.0,484.0,569.0,828.0,795.0,794.0,752.0,695.0,755.0,703.0,637.0,802.0,866.0,792.0,674.0,590.0,705.0,735.0,704.0,717.0,741.0,706.0,684.0,678.0,672.0,598.0,497.0,448.0,485.0,554.0,594.0,635.0,680.0,575.0,541.0,823.0,788.0,743.0,664.0,582.0,720.0,637.0,715.0,716.0,728.0,677.0,786.0,826.0,834.0,779.0,846.0,794.0,747.0,993.0,970.0,718.0,678.0,577.0,655.0,832.0,831.0,824.0,836.0,815.0,759.0,801.0,806.0,757.0,764.0,567.0,591.0,751.0,821.0,869.0,715.0,528.0,1123.0,1131.0,571.0,1060.0,1103.0,1407.0,997.0,711.0,928.0,894.0,902.0,862.0,1099.0,863.0,1226.0,873.0,621.0,503.0,351.0,410.0,613.0,352.0,597.0,632.0,503.0,680.0,469.0,377.0,319.0,395.0,276.0,288.0,264.0,196.0,201.0,141.0,125.0,103.0,82.0,54.0,46.0,-4.0,-10.0,-14.0,-19.0,-23.0,-23.0,-20.0,-19.0,-29.0,-31.0,-42.0,-36.0,-56.0,-57.0,-62.0,-68.0,-59.0,-53.0,-35.0,-1579.0,-3503.0,-3783.0,-3758.0,-3781.0,-3810.0,-3781.0,-3343.0,-2136.0,-315.0,-188.0,-443.0,-2475.0,-3699.0,-4048.0,-4083.0,-4088.0,-4063.0,-4106.0,-4193.0,-4192.0,-4249.0,-4281.0,-4316.0,-4342.0,-4372.0,-4386.0,-4404.0,-4447.0,-4414.0,-4434.0,-4422.0,-4421.0,-4433.0,-4410.0,-4436.0,-4454.0,-4484.0,-4503.0,-4453.0,-4477.0,-4558.0,-4610.0,-4610.0,-4608.0,-4599.0,-4611.0,-4617.0,-4620.0,-4635.0,-4656.0,-4683.0,-4700.0,-4715.0,-4724.0,-4733.0,-4739.0,-4738.0,-4751.0,-4773.0,-4818.0,-4849.0,-4865.0,-4881.0,-4902.0,-4944.0,-4972.0,-5028.0,-4974.0,-5007.0,-5027.0,-5040.0,-5101.0,-5189.0,-5137.0,-5239.0,-5248.0,-5214.0,-5214.0,-5209.0,-5138.0,-5307.0,-5179.0,-5306.0,-5434.0,-5558.0,-5442.0,-5614.0,-5610.0,-5287.0,-5234.0,-5173.0,-5944.0,-5820.0,-5518.0,-5554.0,-5508.0,-5701.0,-5743.0,-5523.0,-5090.0,-5376.0,-5363.0,-5776.0,-5618.0,-5592.0,-5282.0,-5514.0,-5599.0,-5202.0,-5977.0,-5699.0,-5633.0,-5433.0,-5572.0,-5743.0,-5446.0,-5309.0,-5277.0,-5175.0,-5137.0,-5073.0,-5119.0,-4659.0,-4909.0,-4404.0,-4554.0,-4278.0,-4376.0,-4855.0,-4864.0,-4848.0,-4675.0,-4867.0,-5021.0,-4993.0,-4623.0,-4809.0,-4782.0,-4752.0,-4913.0,-4712.0,-4761.0,-4355.0,-4837.0,-4748.0,-4660.0,-4473.0,-4818.0,-4405.0,-4242.0,-4105.0,-4390.0,-4323.0,-4064.0,-4409.0,-4244.0,-4303.0,-4121.0,-4204.0,-4205.0,-4183.0,-4135.0,-3964.0,-3892.0,-3716.0,-2978.0,-3496.0,-3259.0,-2735.0,-3317.0,-3482.0,-3781.0,-3791.0,-3140.0,-3104.0,-3648.0,-3576.0,-3388.0,-3259.0,-3019.0,-3168.0,-3266.0,-2917.0,-2859.0,-3460.0,-3532.0,-3830.0,-3405.0,-3012.0,-3275.0,-3043.0,-3078.0,-2737.0,-2784.0,-3426.0,-3442.0,-3306.0,-3213.0,-3352.0,-2777.0,-2224.0,-2768.0,-3025.0,-2064.0,-2301.0,-3021.0,-3022.0,-2950.0,-2934.0,-2897.0,-3010.0,-3321.0,-3227.0,-3567.0,-3579.0,-3453.0,-3286.0,-3457.0,-3420.0,-3428.0,-3543.0,-3622.0,-3529.0,-3749.0,-3314.0,-3614.0,-3482.0,-3506.0,-3522.0,-3540.0,-3506.0,-3364.0,-3605.0,-2705.0,-3819.0,-3783.0,-3792.0,-3768.0,-3690.0,-3843.0,-3916.0,-4012.0,-3636.0,-4167.0,-4345.0,-3837.0,-4131.0,-4108.0,-4057.0,-3964.0,-4503.0,-4403.0,-4798.0,-4420.0,-4093.0,-4193.0,-3906.0,-5019.0,-4740.0,-5055.0
516.0,415.0,283.0,321.0,393.0,357.0,300.0,337.0,424.0,370.0,428.0,505.0,533.0,469.0,751.0,690.0,663.0,429.0,463.0,520.0,437.0,355.0,415.0,385.0,415.0,398.0,370.0,383.0,356.0,352.0,460.0,412.0,603.0,417.0,375.0,355.0,478.0,585.0,602.0,490.0,602.0,729.0,833.0,934.0,795.0,822.0,841.0,911.0,828.0,992.0,1008.0,1044.0,1055.0,1029.0,1023.0,833.0,956.0,958.0,934.0,910.0,905.0,952.0,983.0,954.0,939.0,790.0,696.0,667.0,680.0,661.0,725.0,937.0,893.0,852.0,834.0,535.0,508.0,525.0,501.0,481.0,543.0,582.0,503.0,474.0,545.0,577.0,582.0,705.0,763.0,773.0,907.0,772.0,809.0,788.0,546.0,671.0,548.0,637.0,894.0,791.0,899.0,789.0,837.0,788.0,742.0,904.0,633.0,721.0,870.0,588.0,638.0,717.0,803.0,725.0,653.0,754.0,851.0,657.0,542.0,382.0,497.0,408.0,216.0,217.0,603.0,185.0,166.0,265.0,241.0,217.0,139.0,132.0,81.0,67.0,34.0,-21.0,-24.0,-31.0,-35.0,-39.0,-40.0,-43.0,-44.0,-401.0,-2536.0,-2673.0,-3990.0,-3997.0,-3999.0,-4052.0,-4033.0,-4052.0,-4091.0,-4120.0,-4161.0,-4172.0,-4195.0,-4191.0,-4197.0,-4187.0,-4211.0,-4226.0,-4237.0,-4204.0,-4174.0,-4266.0,-4297.0,-4313.0,-4320.0,-4346.0,-4370.0,-4368.0,-4359.0,-4401.0,-4418.0,-4443.0,-4466.0,-4492.0,-4537.0,-4559.0,-4583.0,-4590.0,-4588.0,-4607.0,-4624.0,-4626.0,-4625.0,-4626.0,-4651.0,-4665.0,-4681.0,-4684.0,-4679.0,-4671.0,-4661.0,-4677.0,-4691.0,-4712.0,-4718.0,-4783.0,-4835.0,-4876.0,-4942.0,-4943.0,-4784.0,-4931.0,-4897.0,-4918.0,-4924.0,-4930.0,-4945.0,-4921.0,-5014.0,-5143.0,-5140.0,-4629.0,-4877.0,-4753.0,-5084.0,-5220.0,-5054.0,-5291.0,-5292.0,-5289.0,-5095.0,-5348.0,-5310.0,-5348.0,-5377.0,-5419.0,-5163.0,-5420.0,-5300.0,-4998.0,-5402.0,-5216.0,-4988.0,-5261.0,-5358.0,-5828.0,-5974.0,-5481.0,-5118.0,-5671.0,-5264.0,-5453.0,-5398.0,-5689.0,-5247.0,-4714.0,-5028.0,-5218.0,-4939.0,-4941.0,-5360.0,-4498.0,-4887.0,-5148.0,-5379.0,-5047.0,-5090.0,-5100.0,-4770.0,-4805.0,-4929.0,-4774.0,-4895.0,-4867.0,-4565.0,-4850.0,-5078.0,-4881.0,-4634.0,-4681.0,-4816.0,-4663.0,-4580.0,-4860.0,-4651.0,-4549.0,-4522.0,-4526.0,-4981.0,-5015.0,-4119.0,-4684.0,-4486.0,-4291.0,-4399.0,-4294.0,-4252.0,-4732.0,-4472.0,-4485.0,-4340.0,-4383.0,-4773.0,-4717.0,-4503.0,-5119.0,-4516.0,-4266.0,-4457.0,-4142.0,-4449.0,-4315.0,-4333.0,-4305.0,-4236.0,-4214.0,-3980.0,-3924.0,-4127.0,-3785.0,-4071.0,-3852.0,-3838.0,-3646.0,-3767.0,-3688.0,-3572.0,-3600.0,-3583.0,-3469.0,-3496.0,-3473.0,-3462.0,-3545.0,-3464.0,-3368.0,-3483.0,-3377.0,-3413.0,-3409.0,-3126.0,-3274.0,-3282.0,-3095.0,-3154.0,-2815.0,-2998.0,-2827.0,-2783.0,-3000.0,-2309.0,-2773.0,-3663.0,-3621.0,-3635.0,-3388.0,-2989.0,-2636.0,-3111.0,-3515.0,-3172.0,-3210.0,-3162.0,-3201.0,-3468.0,-3401.0,-3440.0,-3354.0,-3382.0,-3402.0,-3406.0,-3806.0,-3702.0,-3908.0,-4061.0,-3929.0,-3698.0,-3510.0,-3692.0,-3525.0,-3754.0,-3561.0,-3884.0,-3875.0,-3812.0,-3828.0,-3645.0,-3654.0,-3859.0,-3833.0,-4013.0,-3895.0,-4078.0,-3899.0,-2702.0,-3611.0,-4148.0,-4129.0,-4064.0,-3863.0,-3359.0,-3845.0,-4271.0,-4404.0,-4306.0,-4112.0,-4159.0,-4288.0,-4363.0,-4422.0,-4425.0,-4552.0,-4361.0,-4446.0,-4275.0,-4089.0
444.0,435.0,431.0,413.0,417.0,433.0,437.0,463.0,510.0,491.0,579.0,538.0,452.0,446.0,515.0,507.0,449.0,393.0,449.0,479.0,408.0,409.0,348.0,296.0,294.0,268.0,270.0,264.0,243.0,265.0,249.0,247.0,248.0,257.0,242.0,247.0,242.0,248.0,273.0,292.0,294.0,328.0,418.0,352.0,369.0,373.0,343.0,405.0,512.0,559.0,494.0,504.0,518.0,574.0,550.0,776.0,554.0,494.0,448.0,953.0,981.0,883.0,1071.0,1128.0,1068.0,554.0,513.0,443.0,471.0,472.0,475.0,526.0,583.0,670.0,773.0,779.0,862.0,874.0,868.0,842.0,833.0,817.0,734.0,686.0,791.0,648.0,658.0,551.0,634.0,545.0,567.0,511.0,475.0,469.0,441.0,480.0,538.0,535.0,492.0,512.0,915.0,1165.0,564.0,591.0,889.0,815.0,758.0,629.0,562.0,601.0,498.0,523.0,557.0,586.0,749.0,649.0,458.0,411.0,499.0,429.0,854.0,713.0,635.0,707.0,670.0,539.0,334.0,184.0,208.0,347.0,107.0,211.0,156.0,134.0,-18.0,-476.0,-1319.0,-1777.0,-2229.0,-2640.0,-2905.0,-3129.0,-3325.0,-3499.0,-3653.0,-3660.0,-3768.0,-3917.0,-3989.0,-4029.0,-4106.0,-4156.0,-4186.0,-4228.0,-4300.0,-4346.0,-4377.0,-4414.0,-4450.0,-4485.0,-4515.0,-4504.0,-4510.0,-4529.0,-4558.0,-4548.0,-4577.0,-4548.0,-4592.0,-4597.0,-4606.0,-4596.0,-4593.0,-4604.0,-4596.0,-4597.0,-4518.0,-4573.0,-4552.0,-4572.0,-4581.0,-4579.0,-4541.0,-4528.0,-4554.0,-4556.0,-4543.0,-4552.0,-3977.0,-2446.0,-2853.0,-4713.0,-4831.0,-3408.0,-4643.0,-4755.0,-4808.0,-4779.0,-4777.0,-4722.0,-4687.0,-4790.0,-4823.0,-4905.0,-5066.0,-5044.0,-5099.0,-5200.0,-5185.0,-5244.0,-5185.0,-5173.0,-5179.0,-5182.0,-5290.0,-5214.0,-5203.0,-5164.0,-5209.0,-5110.0,-5099.0,-5177.0,-5322.0,-5317.0,-5045.0,-5202.0,-5030.0,-5266.0,-4929.0,-5292.0,-5107.0,-4999.0,-5162.0,-5395.0,-5450.0,-5386.0,-5558.0,-5283.0,-5593.0,-5433.0,-5623.0,-5435.0,-5371.0,-5264.0,-5254.0,-5557.0,-5344.0,-5144.0,-5733.0,-5917.0,-5030.0,-5709.0,-5396.0,-5351.0,-5190.0,-5493.0,-5361.0,-5076.0,-5226.0,-5431.0,-5395.0,-5281.0,-5823.0,-4823.0,-5227.0,-5514.0,-5395.0,-4844.0,-5080.0,-4996.0,-5148.0,-5301.0,-5062.0,-4980.0,-5490.0,-5407.0,-5335.0,-5006.0,-5188.0,-4762.0,-4640.0,-4477.0,-4547.0,-4585.0,-4437.0,-4484.0,-4817.0,-4597.0,-4999.0,-4766.0,-4939.0,-4637.0,-4986.0,-4976.0,-4664.0,-4323.0,-4347.0,-4509.0,-4442.0,-4302.0,-4521.0,-4494.0,-4349.0,-4400.0,-4398.0,-4430.0,-4194.0,-4350.0,-4551.0,-4809.0,-3953.0,-4356.0,-4410.0,-4467.0,-4060.0,-3891.0,-4006.0,-4023.0,-3828.0,-3660.0,-3920.0,-3802.0,-4352.0,-4325.0,-4565.0,-3621.0,-3825.0,-4183.0,-4165.0,-4111.0,-4028.0,-3874.0,-3286.0,-3412.0,-3130.0,-3370.0,-3078.0,-2946.0,-3051.0,-2943.0,-2751.0,-2635.0,-2357.0,-2487.0,-2237.0,-2392.0,-3063.0,-2615.0,-2340.0,-2931.0,-2683.0,-3062.0,-3188.0,-3109.0,-3292.0,-3277.0,-3209.0,-3137.0,-3364.0,-3129.0,-3091.0,-2860.0,-2843.0,-2923.0,-3316.0,-3377.0,-3160.0,-3363.0,-3299.0,-3281.0,-3425.0,-3373.0,-3486.0,-3433.0,-3413.0,-3457.0,-3366.0,-3583.0,-3579.0,-3239.0,-3590.0,-3643.0,-3481.0,-3742.0,-3703.0,-3643.0,-3724.0,-3692.0,-3678.0,-4060.0,-3948.0,-4118.0,-4220.0,-4182.0,-3628.0,-3636.0,-3196.0,-4345.0,-4336.0,-4329.0,-4326.0,-4161.0,-4247.0,-4065.0,-3883.0,-4152.0,-4339.0,-3973.0,-4205.0,-4403.0
394.0,357.0,370.0,326.0,339.0,356.0,355.0,316.0,329.0,336.0,329.0,328.0,337.0,332.0,304.0,338.0,328.0,310.0,305.0,321.0,334.0,335.0,333.0,336.0,339.0,329.0,346.0,324.0,350.0,314.0,324.0,234.0,216.0,213.0,208.0,210.0,207.0,208.0,215.0,211.0,207.0,214.0,235.0,288.0,267.0,256.0,245.0,240.0,236.0,234.0,281.0,274.0,267.0,334.0,417.0,303.0,322.0,287.0,281.0,288.0,294.0,291.0,324.0,361.0,359.0,355.0,368.0,432.0,463.0,385.0,379.0,389.0,481.0,511.0,893.0,852.0,810.0,778.0,715.0,749.0,732.0,705.0,735.0,702.0,744.0,722.0,765.0,754.0,780.0,798.0,826.0,793.0,708.0,512.0,472.0,457.0,444.0,437.0,440.0,420.0,463.0,482.0,740.0,501.0,492.0,526.0,537.0,984.0,1096.0,1202.0,986.0,947.0,1244.0,969.0,708.0,399.0,434.0,597.0,700.0,517.0,467.0,324.0,495.0,310.0,239.0,221.0,208.0,264.0,199.0,174.0,143.0,149.0,178.0,223.0,117.0,155.0,184.0,24.0,76.0,34.0,81.0,32.0,12.0,-56.0,-1070.0,-2192.0,-2607.0,-2915.0,-3105.0,-3289.0,-3418.0,-3478.0,-3558.0,-3708.0,-3813.0,-3890.0,-4004.0,-4101.0,-4144.0,-4206.0,-4230.0,-4246.0,-4250.0,-4275.0,-4295.0,-4326.0,-4342.0,-4365.0,-4389.0,-4418.0,-4441.0,-4450.0,-4429.0,-4434.0,-4450.0,-4484.0,-4541.0,-4603.0,-4475.0,-4479.0,-4510.0,-4863.0,-4583.0,-4551.0,-3329.0,-4434.0,-4482.0,-4600.0,-4637.0,-4573.0,-4598.0,-4600.0,-4716.0,-2829.0,-3738.0,-4761.0,-4830.0,-5106.0,-5156.0,-5196.0,-5208.0,-5202.0,-5275.0,-5277.0,-5323.0,-5296.0,-5403.0,-5364.0,-5407.0,-5415.0,-5510.0,-5499.0,-5525.0,-5542.0,-5531.0,-5542.0,-5437.0,-5563.0,-5281.0,-5565.0,-5614.0,-5600.0,-5538.0,-5526.0,-5522.0,-5514.0,-5515.0,-5527.0,-5512.0,-5579.0,-5573.0,-5598.0,-5610.0,-5563.0,-5448.0,-5574.0,-5571.0,-5822.0,-5828.0,-4851.0,-5205.0,-5313.0,-5611.0,-5458.0,-5524.0,-5692.0,-5616.0,-5407.0,-5599.0,-5378.0,-5175.0,-5402.0,-5479.0,-5275.0,-5331.0,-5438.0,-5271.0,-5316.0,-5424.0,-5018.0,-5480.0,-5388.0,-4759.0,-5312.0,-5701.0,-5040.0,-5007.0,-5055.0,-4942.0,-5192.0,-5335.0,-5100.0,-5230.0,-4783.0,-5146.0,-4995.0,-5096.0,-4998.0,-4915.0,-5079.0,-4963.0,-5090.0,-4870.0,-5132.0,-4891.0,-4976.0,-5042.0,-5009.0,-4996.0,-5108.0,-4952.0,-4692.0,-4577.0,-4902.0,-4701.0,-4502.0,-4582.0,-4826.0,-4550.0,-4654.0,-4718.0,-4738.0,-4771.0,-4656.0,-4200.0,-4304.0,-4073.0,-3984.0,-4029.0,-4013.0,-3839.0,-3815.0,-3998.0,-3852.0,-3903.0,-3669.0,-3700.0,-3718.0,-3510.0,-3728.0,-3743.0,-3787.0,-3805.0,-3902.0,-4047.0,-4011.0,-3859.0,-3811.0,-3059.0,-3723.0,-3407.0,-3700.0,-3501.0,-2817.0,-2357.0,-2689.0,-3138.0,-3208.0,-2509.0,-2375.0,-2836.0,-3167.0,-3406.0,-2867.0,-3029.0,-3177.0,-3294.0,-3365.0,-3346.0,-3266.0,-3483.0,-3697.0,-3656.0,-3279.0,-3729.0,-3647.0,-3977.0,-3856.0,-3944.0,-3960.0,-3891.0,-4069.0,-3972.0,-3973.0,-3857.0,-3910.0,-3979.0,-4005.0,-3944.0,-3883.0,-3865.0,-3711.0,-3557.0,-3815.0,-3900.0,-4043.0,-4374.0,-3740.0,-4290.0,-4590.0,-4604.0,-4517.0,-4427.0,-4505.0,-4224.0,-4078.0,-4345.0,-4549.0,-4634.0,-4664.0,-4070.0,-4656.0,-3983.0,-4100.0,-4388.0,-4573.0,-4572.0,-4525.0,-5054.0,-4650.0,-4484.0,-4533.0,-4043.0,-3741.0,-3765.0,-4278.0,-3976.0,-4414.0,-4288.0,-3629.0
354.0,317.0,362.0,323.0,396.0,402.0,374.0,331.0,359.0,360.0,349.0,389.0,336.0,337.0,311.0,328.0,300.0,307.0,305.0,338.0,337.0,336.0,293.0,289.0,273.0,230.0,224.0,225.0,191.0,196.0,200.0,200.0,359.0,189.0,182.0,181.0,181.0,182.0,182.0,181.0,182.0,180.0,180.0,179.0,180.0,183.0,205.0,197.0,216.0,232.0,343.0,352.0,295.0,519.0,333.0,246.0,229.0,268.0,312.0,676.0,458.0,341.0,404.0,358.0,356.0,381.0,394.0,420.0,443.0,552.0,462.0,512.0,795.0,626.0,722.0,627.0,567.0,690.0,757.0,680.0,752.0,637.0,633.0,558.0,537.0,522.0,677.0,588.0,550.0,551.0,494.0,520.0,497.0,648.0,517.0,475.0,463.0,455.0,505.0,553.0,514.0,465.0,400.0,401.0,469.0,455.0,440.0,432.0,434.0,453.0,469.0,485.0,488.0,825.0,738.0,664.0,604.0,554.0,557.0,572.0,765.0,724.0,781.0,413.0,401.0,372.0,361.0,349.0,338.0,312.0,364.0,319.0,276.0,320.0,252.0,310.0,447.0,381.0,214.0,292.0,268.0,277.0,510.0,283.0,219.0,211.0,202.0,145.0,143.0,23.0,3.0,11.0,-11.0,-16.0,-21.0,-29.0,-491.0,-1284.0,-1806.0,-2254.0,-2614.0,-2917.0,-3169.0,-3423.0,-3566.0,-3795.0,-3924.0,-3965.0,-4124.0,-4260.0,-4273.0,-4306.0,-4393.0,-4455.0,-4531.0,-4573.0,-4400.0,-4709.0,-4638.0,-4651.0,-4645.0,-4579.0,-4358.0,-4718.0,-4947.0,-5082.0,-4922.0,-4911.0,-4969.0,-4970.0,-4997.0,-5059.0,-5098.0,-5119.0,-5098.0,-5150.0,-5149.0,-5169.0,-5188.0,-5197.0,-5239.0,-5251.0,-5275.0,-5281.0,-5291.0,-5316.0,-5333.0,-5370.0,-5389.0,-5399.0,-5410.0,-5442.0,-5436.0,-5422.0,-5410.0,-5395.0,-5465.0,-5526.0,-5510.0,-5532.0,-5078.0,-5371.0,-4941.0,-5432.0,-5480.0,-5470.0,-5334.0,-5563.0,-5577.0,-5536.0,-5560.0,-4355.0,-5067.0,-5405.0,-4559.0,-5341.0,-5589.0,-5676.0,-5548.0,-5661.0,-5584.0,-5680.0,-5552.0,-5581.0,-5422.0,-5486.0,-5301.0,-5110.0,-4867.0,-5605.0,-5575.0,-5775.0,-5417.0,-5621.0,-5435.0,-5708.0,-5661.0,-5564.0,-5432.0,-5549.0,-5560.0,-5036.0,-5515.0,-5512.0,-5216.0,-5569.0,-5591.0,-5291.0,-5422.0,-5126.0,-5085.0,-4834.0,-5470.0,-5239.0,-5508.0,-5374.0,-4939.0,-5296.0,-4876.0,-4751.0,-5111.0,-5111.0,-4896.0,-4628.0,-4652.0,-4713.0,-4342.0,-4561.0,-4958.0,-4458.0,-4632.0,-4736.0,-4670.0,-4227.0,-3940.0,-4815.0,-4650.0,-4377.0,-4553.0,-4131.0,-4434.0,-4505.0,-4443.0,-4105.0,-3903.0,-4217.0,-4352.0,-4382.0,-3900.0,-4190.0,-4180.0,-4270.0,-4475.0,-4185.0,-3891.0,-4276.0,-4060.0,-4004.0,-4163.0,-3868.0,-3827.0,-4110.0,-4038.0,-3854.0,-4191.0,-3875.0,-3440.0,-3576.0,-3625.0,-3511.0,-3557.0,-3640.0,-3608.0,-3513.0,-3454.0,-3358.0,-3493.0,-3068.0,-3151.0,-3244.0,-3235.0,-3133.0,-3121.0,-2955.0,-2694.0,-2636.0,-2712.0,-2711.0,-2482.0,-1890.0,-3011.0,-2351.0,-2272.0,-2738.0,-2540.0,-2636.0,-2914.0,-2735.0,-3071.0,-2449.0,-3142.0,-3110.0,-3295.0,-3158.0,-3338.0,-3429.0,-3368.0,-3432.0,-3368.0,-3615.0,-3316.0,-3582.0,-3406.0,-3849.0,-3465.0,-3714.0,-4161.0,-4041.0,-4326.0,-4625.0,-4567.0,-4524.0,-4156.0,-4046.0,-4309.0,-3986.0,-3883.0,-3889.0,-3951.0,-3803.0,-4188.0,-4224.0,-4392.0,-4274.0,-4434.0,-4368.0,-4359.0,-4216.0,-4398.0,-4512.0,-3899.0,-3851.0,-3944.0,-4185.0,-4040.0,-4111.0,-3841.0,-4412.0,-4516.0,-4285.0
508.0,500.0,528.0,541.0,509.0,448.0,380.0,358.0,348.0,362.0,349.0,323.0,311.0,314.0,338.0,318.0,305.0,342.0,286.0,283.0,290.0,304.0,295.0,337.0,295.0,290.0,288.0,317.0,423.0,422.0,379.0,302.0,329.0,322.0,284.0,394.0,276.0,281.0,233.0,212.0,230.0,199.0,194.0,165.0,165.0,183.0,212.0,209.0,173.0,231.0,202.0,248.0,283.0,357.0,362.0,233.0,244.0,229.0,234.0,297.0,309.0,311.0,254.0,263.0,266.0,308.0,319.0,503.0,483.0,494.0,442.0,560.0,485.0,409.0,490.0,372.0,285.0,376.0,482.0,486.0,489.0,568.0,518.0,371.0,385.0,417.0,615.0,549.0,501.0,366.0,312.0,316.0,515.0,408.0,354.0,567.0,607.0,595.0,658.0,656.0,650.0,588.0,494.0,376.0,327.0,330.0,328.0,329.0,366.0,375.0,417.0,459.0,583.0,662.0,567.0,489.0,452.0,430.0,459.0,440.0,440.0,404.0,370.0,371.0,387.0,385.0,358.0,370.0,448.0,434.0,411.0,376.0,361.0,340.0,370.0,497.0,480.0,333.0,338.0,335.0,302.0,376.0,489.0,473.0,368.0,467.0,450.0,408.0,402.0,438.0,390.0,486.0,500.0,764.0,760.0,702.0,622.0,638.0,351.0,413.0,464.0,215.0,163.0,135.0,18.0,51.0,-17.0,-37.0,-39.0,-784.0,-2064.0,-2955.0,-2289.0,-3000.0,-2482.0,-2819.0,-3502.0,-4097.0,-4415.0,-4735.0,-4675.0,-4630.0,-4682.0,-4745.0,-4820.0,-4901.0,-4917.0,-4957.0,-4981.0,-4953.0,-4991.0,-5031.0,-5048.0,-5057.0,-5067.0,-5074.0,-5077.0,-5038.0,-5034.0,-4716.0,-3954.0,-5285.0,-4730.0,-4730.0,-5188.0,-5476.0,-5436.0,-5389.0,-5389.0,-5374.0,-5361.0,-5375.0,-5245.0,-5431.0,-5420.0,-5501.0,-5514.0,-5529.0,-5525.0,-5470.0,-5533.0,-5566.0,-5584.0,-5598.0,-5615.0,-5618.0,-5623.0,-5636.0,-5655.0,-5659.0,-5684.0,-5529.0,-5591.0,-5608.0,-5652.0,-5613.0,-5599.0,-5636.0,-5709.0,-5694.0,-5723.0,-5707.0,-5741.0,-5722.0,-5746.0,-5373.0,-5163.0,-5469.0,-5571.0,-5471.0,-5658.0,-5519.0,-5398.0,-5175.0,-5753.0,-5808.0,-5270.0,-5666.0,-5060.0,-5408.0,-5624.0,-5534.0,-5227.0,-5559.0,-5171.0,-5149.0,-5199.0,-5754.0,-5158.0,-4939.0,-5297.0,-5143.0,-5326.0,-5436.0,-5395.0,-5246.0,-5033.0,-5079.0,-5013.0,-4873.0,-4717.0,-4437.0,-4624.0,-4803.0,-4757.0,-4536.0,-4463.0,-4701.0,-4764.0,-4759.0,-4927.0,-4906.0,-3104.0,-3142.0,-4114.0,-2376.0,-4687.0,-4632.0,-4461.0,-4303.0,-4572.0,-4133.0,-4039.0,-4211.0,-4124.0,-4074.0,-4166.0,-4130.0,-4299.0,-4092.0,-4101.0,-4083.0,-4073.0,-4105.0,-4049.0,-3906.0,-3840.0,-3690.0,-3599.0,-3646.0,-3619.0,-3552.0,-3801.0,-3538.0,-3594.0,-3665.0,-3590.0,-3281.0,-3690.0,-3642.0,-3801.0,-4346.0,-4291.0,-3708.0,-3499.0,-2737.0,-3229.0,-2999.0,-3186.0,-3039.0,-3032.0,-2918.0,-2697.0,-2605.0,-2452.0,-1978.0,-2606.0,-2081.0,-2344.0,-2179.0,-2110.0,-2645.0,-2839.0,-2971.0,-3055.0,-2537.0,-2649.0,-2985.0,-3210.0,-3388.0,-3346.0,-3324.0,-3469.0,-3511.0,-3106.0,-3202.0,-3593.0,-3338.0,-3328.0,-3439.0,-3906.0,-3360.0,-3910.0,-3702.0,-3319.0,-3456.0,-3182.0,-3449.0,-3652.0,-3735.0,-3768.0,-3681.0,-3503.0,-3893.0,-3964.0,-4105.0,-4114.0,-4221.0,-4295.0,-3887.0,-4000.0,-3976.0,-4047.0,-4098.0,-4087.0,-4176.0,-3968.0,-4105.0,-4150.0,-4322.0,-4254.0,-4039.0,-4167.0,-4269.0,-4145.0,-4436.0,-4528.0,-3979.0,-3975.0,-4474.0
266.0,279.0,261.0,270.0,294.0,250.0,402.0,288.0,271.0,271.0,305.0,247.0,251.0,262.0,336.0,410.0,372.0,274.0,238.0,224.0,226.0,209.0,330.0,215.0,260.0,221.0,305.0,283.0,245.0,215.0,234.0,245.0,302.0,264.0,255.0,292.0,413.0,329.0,394.0,406.0,320.0,303.0,216.0,217.0,185.0,224.0,183.0,418.0,149.0,143.0,179.0,252.0,207.0,199.0,206.0,413.0,220.0,228.0,247.0,203.0,205.0,162.0,194.0,264.0,234.0,293.0,291.0,345.0,453.0,370.0,395.0,486.0,431.0,581.0,440.0,404.0,369.0,344.0,294.0,277.0,225.0,219.0,291.0,258.0,252.0,302.0,285.0,221.0,172.0,353.0,258.0,376.0,413.0,316.0,260.0,213.0,226.0,233.0,227.0,222.0,228.0,244.0,225.0,170.0,237.0,216.0,257.0,252.0,257.0,241.0,233.0,170.0,219.0,279.0,273.0,265.0,312.0,401.0,382.0,480.0,589.0,613.0,647.0,628.0,642.0,653.0,793.0,860.0,643.0,933.0,899.0,440.0,354.0,333.0,329.0,432.0,409.0,582.0,700.0,657.0,585.0,320.0,291.0,287.0,286.0,306.0,374.0,391.0,558.0,600.0,715.0,640.0,531.0,512.0,539.0,521.0,523.0,507.0,526.0,616.0,580.0,359.0,296.0,119.0,114.0,95.0,83.0,76.0,16.0,20.0,-19.0,-31.0,-661.0,-2921.0,-3548.0,-3779.0,-4086.0,-4219.0,-4190.0,-3198.0,-4307.0,-4285.0,-4466.0,-4592.0,-4652.0,-4704.0,-4751.0,-4828.0,-4877.0,-4932.0,-4959.0,-4991.0,-5035.0,-5070.0,-5083.0,-5109.0,-5135.0,-5173.0,-5214.0,-5240.0,-5281.0,-5284.0,-5302.0,-5296.0,-5317.0,-5344.0,-5380.0,-5387.0,-5424.0,-5436.0,-5433.0,-5435.0,-5418.0,-5241.0,-5409.0,-5487.0,-5397.0,-5634.0,-5176.0,-4879.0,-4706.0,-5530.0,-5292.0,-5468.0,-5466.0,-5623.0,-5630.0,-5687.0,-5639.0,-5651.0,-5683.0,-5563.0,-5632.0,-5646.0,-5696.0,-5680.0,-5682.0,-5685.0,-5704.0,-5686.0,-5698.0,-5734.0,-5731.0,-5520.0,-5650.0,-5632.0,-5753.0,-5740.0,-5712.0,-5639.0,-5696.0,-5618.0,-5594.0,-5702.0,-5728.0,-5697.0,-5685.0,-5764.0,-5372.0,-5840.0,-5520.0,-5270.0,-5586.0,-5198.0,-5253.0,-5568.0,-5644.0,-5358.0,-5522.0,-5080.0,-5545.0,-5275.0,-5143.0,-5179.0,-5203.0,-5237.0,-5315.0,-5146.0,-5247.0,-4861.0,-5141.0,-5298.0,-4301.0,-2702.0,-3336.0,-4783.0,-4715.0,-4803.0,-4949.0,-5040.0,-4774.0,-4995.0,-4823.0,-4996.0,-4733.0,-4698.0,-4616.0,-4432.0,-4270.0,-4389.0,-4323.0,-4135.0,-4326.0,-4344.0,-4470.0,-4314.0,-4169.0,-4215.0,-4237.0,-4141.0,-4316.0,-4296.0,-4137.0,-4225.0,-4219.0,-4257.0,-4217.0,-4056.0,-4071.0,-4014.0,-4086.0,-4012.0,-3992.0,-4099.0,-3957.0,-3940.0,-3827.0,-3695.0,-3612.0,-3678.0,-3654.0,-3801.0,-3700.0,-3812.0,-3709.0,-3513.0,-3634.0,-3591.0,-3677.0,-3731.0,-3754.0,-3613.0,-3764.0,-3704.0,-3639.0,-3698.0,-3679.0,-3789.0,-2744.0,-2506.0,-4165.0,-3628.0,-2830.0,-2664.0,-3398.0,-3969.0,-3266.0,-3430.0,-3749.0,-3016.0,-3781.0,-3455.0,-3351.0,-3345.0,-3352.0,-3476.0,-3317.0,-3352.0,-3520.0,-3416.0,-3390.0,-3528.0,-3522.0,-3542.0,-3449.0,-3346.0,-3573.0,-3572.0,-3544.0,-3668.0,-3570.0,-3399.0,-3588.0,-3448.0,-3643.0,-3997.0,-3663.0,-4091.0,-3880.0,-4117.0,-4023.0,-4085.0,-4369.0,-4244.0,-4264.0,-4483.0,-4429.0,-4401.0,-4417.0,-4464.0,-4670.0,-4684.0,-4695.0,-4515.0,-4394.0,-4611.0,-4523.0,-4530.0,-4641.0,-4696.0
247.0,268.0,258.0,246.0,287.0,196.0,208.0,228.0,224.0,290.0,197.0,316.0,190.0,389.0,234.0,220.0,220.0,200.0,187.0,191.0,189.0,202.0,203.0,207.0,200.0,222.0,242.0,200.0,201.0,228.0,195.0,165.0,214.0,208.0,218.0,225.0,250.0,198.0,209.0,182.0,177.0,177.0,170.0,193.0,164.0,149.0,135.0,140.0,162.0,89.0,125.0,130.0,119.0,94.0,98.0,93.0,114.0,131.0,142.0,145.0,153.0,111.0,115.0,131.0,166.0,202.0,372.0,271.0,238.0,241.0,304.0,350.0,246.0,276.0,263.0,243.0,192.0,225.0,228.0,210.0,210.0,203.0,162.0,108.0,172.0,184.0,137.0,173.0,125.0,217.0,171.0,165.0,138.0,131.0,153.0,170.0,145.0,187.0,142.0,209.0,197.0,103.0,89.0,127.0,141.0,164.0,181.0,142.0,177.0,166.0,121.0,166.0,206.0,301.0,436.0,368.0,515.0,633.0,768.0,374.0,335.0,314.0,336.0,340.0,353.0,668.0,524.0,553.0,603.0,336.0,260.0,219.0,176.0,152.0,164.0,179.0,149.0,144.0,127.0,129.0,53.0,123.0,108.0,146.0,117.0,93.0,80.0,70.0,52.0,93.0,136.0,60.0,15.0,45.0,58.0,87.0,104.0,138.0,153.0,169.0,251.0,207.0,120.0,84.0,36.0,-17.0,-13.0,-36.0,-752.0,-1727.0,-3304.0,-3322.0,-3699.0,-3896.0,-4005.0,-4122.0,-4262.0,-4349.0,-4388.0,-4427.0,-4460.0,-4492.0,-4520.0,-4554.0,-4577.0,-4374.0,-4608.0,-4633.0,-4637.0,-4646.0,-4671.0,-4688.0,-4678.0,-4682.0,-4694.0,-4719.0,-4759.0,-4812.0,-4863.0,-4907.0,-4935.0,-4967.0,-4992.0,-5024.0,-5051.0,-5064.0,-5071.0,-5074.0,-5084.0,-5118.0,-5125.0,-5154.0,-5185.0,-5219.0,-5221.0,-5345.0,-5333.0,-5358.0,-5371.0,-5413.0,-5482.0,-5524.0,-5529.0,-5518.0,-5472.0,-5557.0,-5591.0,-5604.0,-5578.0,-5596.0,-5565.0,-5595.0,-5584.0,-5549.0,-5419.0,-5626.0,-5501.0,-5560.0,-5650.0,-5709.0,-5402.0,-4789.0,-4786.0,-5130.0,-5372.0,-5432.0,-5484.0,-5440.0,-5496.0,-5468.0,-5487.0,-5499.0,-5497.0,-5333.0,-5277.0,-5507.0,-4989.0,-5582.0,-5517.0,-5492.0,-5615.0,-5113.0,-5499.0,-5174.0,-5210.0,-5402.0,-5189.0,-5108.0,-5013.0,-5331.0,-5606.0,-5197.0,-5495.0,-5403.0,-5133.0,-5572.0,-4665.0,-4970.0,-5213.0,-4758.0,-5202.0,-5132.0,-5045.0,-5044.0,-5319.0,-5135.0,-5289.0,-4911.0,-5143.0,-5252.0,-4807.0,-4986.0,-5134.0,-4764.0,-4875.0,-4916.0,-4714.0,-4711.0,-4679.0,-4607.0,-4613.0,-4585.0,-4453.0,-4439.0,-4346.0,-4516.0,-4206.0,-4364.0,-4186.0,-4217.0,-4071.0,-4149.0,-3833.0,-3949.0,-3572.0,-3662.0,-4127.0,-4233.0,-4167.0,-4141.0,-4024.0,-4037.0,-3954.0,-4071.0,-3692.0,-3944.0,-3822.0,-3897.0,-3838.0,-3401.0,-3746.0,-3803.0,-3650.0,-3620.0,-3650.0,-3806.0,-3891.0,-3775.0,-3523.0,-3388.0,-3576.0,-3623.0,-3886.0,-3638.0,-3790.0,-3777.0,-3677.0,-3334.0,-3403.0,-3320.0,-3242.0,-3332.0,-3444.0,-3130.0,-3135.0,-2743.0,-3401.0,-3648.0,-3238.0,-3360.0,-3458.0,-3020.0,-2293.0,-3612.0,-2875.0,-2572.0,-3212.0,-3179.0,-3153.0,-3424.0,-3583.0,-3187.0,-3297.0,-3517.0,-3619.0,-3478.0,-3471.0,-3536.0,-3509.0,-3526.0,-3625.0,-3537.0,-3595.0,-3676.0,-3323.0,-3723.0,-3755.0,-3690.0,-3917.0,-3869.0,-3885.0,-3970.0,-3931.0,-4218.0,-4016.0,-3894.0,-3819.0,-3994.0,-3890.0,-3943.0,-4045.0,-4128.0,-4155.0,-4350.0,-4430.0,-4511.0,-4602.0,-4860.0,-4770.0,-4815.0
139.0,166.0,132.0,156.0,186.0,166.0,140.0,237.0,191.0,243.0,205.0,275.0,191.0,94.0,122.0,164.0,276.0,279.0,230.0,297.0,248.0,125.0,110.0,148.0,143.0,149.0,126.0,92.0,124.0,113.0,143.0,140.0,110.0,89.0,104.0,110.0,100.0,62.0,113.0,142.0,86.0,82.0,111.0,87.0,87.0,33.0,84.0,91.0,105.0,88.0,114.0,94.0,77.0,88.0,123.0,154.0,161.0,145.0,176.0,192.0,142.0,123.0,198.0,188.0,199.0,133.0,93.0,90.0,120.0,122.0,277.0,115.0,107.0,99.0,66.0,51.0,50.0,38.0,16.0,34.0,25.0,10.0,17.0,21.0,18.0,9.0,8.0,22.0,63.0,26.0,38.0,61.0,95.0,36.0,67.0,45.0,48.0,95.0,71.0,89.0,73.0,99.0,96.0,107.0,20.0,88.0,29.0,47.0,86.0,28.0,64.0,105.0,160.0,144.0,240.0,467.0,755.0,171.0,239.0,98.0,86.0,788.0,767.0,67.0,94.0,120.0,88.0,92.0,590.0,774.0,511.0,186.0,47.0,55.0,32.0,26.0,-13.0,-12.0,-22.0,-20.0,-28.0,-32.0,-39.0,-222.0,-893.0,-1386.0,-1798.0,-1128.0,-2109.0,-2569.0,-2669.0,-2758.0,-2842.0,-1581.0,-2945.0,-3016.0,-3082.0,-3149.0,-3223.0,-3292.0,-3375.0,-3412.0,-3454.0,-3481.0,-3493.0,-3314.0,-3398.0,-3146.0,-3030.0,-3386.0,-3772.0,-3831.0,-3898.0,-3910.0,-3918.0,-3915.0,-3852.0,-3402.0,-3551.0,-3928.0,-3946.0,-3828.0,-3551.0,-3538.0,-4186.0,-4196.0,-4149.0,-4015.0,-3982.0,-4051.0,-4122.0,-4223.0,-4271.0,-4307.0,-4330.0,-4392.0,-4433.0,-4462.0,-4496.0,-4541.0,-4666.0,-4672.0,-4633.0,-4623.0,-4666.0,-4710.0,-4750.0,-4782.0,-4809.0,-4834.0,-4861.0,-4886.0,-4906.0,-4925.0,-4950.0,-4972.0,-4996.0,-5022.0,-5048.0,-5040.0,-5076.0,-5136.0,-5143.0,-5163.0,-5141.0,-5196.0,-5203.0,-5227.0,-5236.0,-5230.0,-5238.0,-5232.0,-5248.0,-5267.0,-5265.0,-5280.0,-5418.0,-5397.0,-5377.0,-5447.0,-5491.0,-5426.0,-5512.0,-5566.0,-5461.0,-5469.0,-5606.0,-5590.0,-5424.0,-5491.0,-5505.0,-5497.0,-5633.0,-5561.0,-5472.0,-5503.0,-5356.0,-5547.0,-5398.0,-4999.0,-5479.0,-5304.0,-5214.0,-5127.0,-5652.0,-5463.0,-5651.0,-5585.0,-5757.0,-5304.0,-5140.0,-5446.0,-5394.0,-5233.0,-5239.0,-4850.0,-4952.0,-4998.0,-5050.0,-4938.0,-5046.0,-5283.0,-4930.0,-4964.0,-5102.0,-5002.0,-5068.0,-4798.0,-4855.0,-4932.0,-5210.0,-5252.0,-5161.0,-5020.0,-4827.0,-4713.0,-4950.0,-4837.0,-4663.0,-4697.0,-4769.0,-4736.0,-4469.0,-4930.0,-4566.0,-4645.0,-4506.0,-4409.0,-4388.0,-4518.0,-4486.0,-4443.0,-4483.0,-4643.0,-4718.0,-4505.0,-4663.0,-4850.0,-4806.0,-4781.0,-4748.0,-4759.0,-4595.0,-4347.0,-4452.0,-4432.0,-4314.0,-4013.0,-4063.0,-4106.0,-4319.0,-3908.0,-3744.0,-3630.0,-3663.0,-3564.0,-3684.0,-4130.0,-4066.0,-3970.0,-3614.0,-3922.0,-3701.0,-3789.0,-3705.0,-3325.0,-3368.0,-3483.0,-3509.0,-3467.0,-3324.0,-3244.0,-2725.0,-2829.0,-2781.0,-2625.0,-2663.0,-2668.0,-3666.0,-2692.0,-2464.0,-2627.0,-3201.0,-3034.0,-2822.0,-3526.0,-3636.0,-3759.0,-3387.0,-3757.0,-3421.0,-3732.0,-3935.0,-4160.0,-4041.0,-4184.0,-3851.0,-3956.0,-3842.0,-4066.0,-4125.0,-4264.0,-4022.0,-4223.0,-3552.0,-4285.0,-3990.0,-3868.0,-3879.0,-3814.0,-3828.0,-4098.0,-3995.0,-4062.0,-4183.0,-3926.0,-3971.0,-3749.0,-3698.0,-4463.0,-4283.0,-4331.0,-4364.0,-4139.0,-4251.0,-4275.0,-4757.0,-4462.0,-4687.0,-4690.0
9.0,6.0,40.0,38.0,23.0,48.0,41.0,39.0,134.0,75.0,21.0,8.0,4.0,8.0,-12.0,2.0,-17.0,6.0,3.0,3.0,3.0,7.0,3.0,14.0,30.0,35.0,42.0,47.0,39.0,22.0,38.0,3.0,8.0,22.0,27.0,20.0,15.0,-8.0,18.0,17.0,-8.0,-3.0,-5.0,-9.0,3.0,1.0,13.0,15.0,14.0,-13.0,11.0,3.0,14.0,17.0,26.0,19.0,28.0,21.0,48.0,30.0,51.0,22.0,43.0,17.0,22.0,42.0,59.0,82.0,56.0,78.0,32.0,36.0,35.0,16.0,22.0,57.0,36.0,54.0,66.0,61.0,38.0,7.0,-3.0,29.0,35.0,27.0,9.0,11.0,-10.0,-11.0,-24.0,-29.0,-24.0,-39.0,-37.0,-32.0,-36.0,-39.0,-41.0,-50.0,-61.0,-125.0,-1007.0,-1383.0,-1860.0,-2118.0,-2219.0,-2432.0,-2466.0,-2429.0,-2442.0,-2518.0,-2545.0,-2638.0,-2763.0,-2841.0,-3062.0,-3089.0,-2823.0,-3233.0,-3312.0,-3360.0,-3458.0,-3503.0,-3535.0,-3473.0,-3496.0,-3459.0,-3418.0,-3331.0,-3405.0,-3429.0,-3461.0,-3459.0,-3412.0,-3357.0,-3243.0,-2835.0,-3538.0,-3578.0,-3486.0,-3264.0,-3109.0,-3131.0,-2485.0,-3432.0,-3543.0,-3586.0,-3593.0,-3013.0,-2357.0,-3835.0,-4140.0,-4212.0,-4179.0,-4048.0,-3524.0,-3288.0,-3350.0,-3647.0,-3599.0,-3368.0,-3346.0,-3817.0,-3992.0,-4045.0,-4086.0,-4114.0,-4137.0,-4159.0,-4183.0,-4196.0,-4220.0,-4234.0,-4267.0,-4325.0,-4350.0,-4359.0,-4382.0,-4397.0,-4421.0,-4434.0,-4442.0,-4459.0,-4484.0,-4520.0,-4545.0,-4573.0,-4611.0,-4624.0,-4618.0,-4643.0,-4631.0,-4663.0,-4671.0,-4692.0,-4712.0,-4724.0,-4714.0,-4726.0,-4730.0,-4755.0,-4829.0,-4828.0,-4831.0,-4848.0,-4872.0,-4891.0,-4904.0,-4937.0,-4927.0,-4893.0,-4947.0,-4953.0,-4901.0,-4777.0,-4809.0,-4781.0,-4904.0,-4785.0,-4975.0,-5066.0,-4842.0,-4888.0,-5054.0,-5067.0,-5088.0,-5115.0,-5157.0,-5145.0,-5161.0,-5158.0,-5147.0,-5170.0,-5113.0,-5134.0,-5191.0,-5148.0,-5109.0,-5180.0,-5146.0,-5158.0,-5149.0,-5158.0,-5113.0,-5147.0,-5164.0,-5138.0,-5142.0,-5168.0,-5232.0,-4050.0,-4991.0,-4432.0,-4884.0,-3735.0,-4893.0,-4554.0,-4562.0,-3848.0,-4498.0,-4572.0,-4576.0,-4847.0,-4719.0,-4627.0,-4813.0,-4978.0,-4670.0,-4956.0,-4798.0,-4736.0,-4738.0,-4610.0,-4816.0,-4624.0,-4349.0,-4621.0,-4847.0,-4813.0,-4530.0,-4577.0,-4890.0,-4917.0,-4616.0,-4731.0,-4672.0,-4670.0,-4562.0,-4483.0,-4462.0,-4536.0,-4540.0,-4402.0,-4375.0,-4267.0,-4110.0,-3953.0,-4121.0,-3997.0,-4189.0,-3895.0,-4093.0,-3780.0,-3750.0,-4266.0,-4091.0,-4259.0,-4124.0,-4078.0,-4059.0,-4383.0,-3761.0,-3795.0,-4307.0,-4699.0,-4652.0,-4851.0,-5026.0,-4683.0,-3964.0,-4195.0,-4228.0,-4205.0,-3802.0,-4284.0,-4282.0,-4421.0,-4409.0,-3954.0,-3841.0,-4029.0,-3919.0,-4037.0,-3997.0,-4014.0,-3579.0,-3614.0,-3959.0,-3855.0,-3695.0,-3651.0,-3664.0,-3647.0,-3170.0,-3467.0,-2909.0,-3427.0,-2889.0,-3213.0,-2625.0,-3961.0,-2127.0,-2321.0,-2513.0,-2342.0,-2797.0,-3486.0,-3561.0,-3823.0,-3847.0,-3459.0,-3833.0,-3651.0,-3627.0,-3993.0,-3824.0,-4006.0,-3204.0,-4211.0,-4160.0,-3991.0,-3836.0,-3718.0,-3758.0,-3566.0,-3664.0,-4163.0,-4116.0,-3961.0,-4077.0,-4391.0,-4685.0,-4749.0,-4460.0,-4250.0,-4313.0,-4048.0,-4140.0,-4445.0,-4165.0,-4454.0,-4524.0,-4332.0,-4682.0,-4612.0,-4801.0,-4801.0,-4646.0,-4842.0,-4536.0,-4791.0,-4760.0,-4575.0,-4765.0,-4504.0,-4520.0,-4655.0,-4618.0,-4927.0
-16379.0,-16380.5,-16363.5,-16364.5,-16372.0,-16359.5,-16363.0,-16364.0,-16316.5,-16346.0,-16373.0,-16379.5,-16381.5,-16379.5,-16389.5,-16382.5,-16392.0,-16380.5,-16382.0,-16382.0,-16382.0,-16380.0,-16382.0,-16376.5,-16368.5,-16366.0,-16362.5,-16360.0,-16364.0,-16372.5,-16364.5,-16382.0,-16379.5,-16372.5,-16370.0,-16373.5,-16376.0,-16387.5,-16374.5,-16375.0,-16387.5,-16385.0,-16386.0,-16388.0,-16382.0,-16383.0,-16377.0,-16376.0,-16376.5,-16390.0,-16378.0,-16382.0,-16376.5,-16375.0,-16370.5,-16374.0,-16369.5,-16373.0,-16359.5,-16368.5,-16358.0,-16372.5,-16362.0,-16375.0,-16372.5,-16362.5,-16354.0,-16342.5,-16355.5,-16344.5,-16367.5,-16365.5,-16366.0,-16375.5,-16372.5,-16355.0,-16365.5,-16356.5,-16350.5,-16353.0,-16364.5,-16380.0,-16385.0,-16369.0,-16366.0,-16370.0,-16379.0,-16378.0,-16388.5,-16389.0,-16395.5,-16398.0,-16395.5,-16403.0,-16402.0,-16399.5,-16401.5,-16403.0,-16404.0,-16408.5,-16414.0,-16446.0,-16887.0,-17075.0,-17313.5,-17442.5,-17493.0,-17599.5,-17616.5,-17598.0,-17604.5,-17642.5,-17656.0,-17702.5,-17765.0,-17804.0,-17914.5,-17928.0,-17795.0,-18000.0,-18039.5,-18063.5,-18112.5,-18135.0,-18151.0,-18120.0,-18131.5,-18113.0,-18092.5,-18049.0,-18086.0,-18098.0,-18114.0,-18113.0,-18089.5,-18062.0,-18005.0,-17801.0,-18152.5,-18172.5,-18126.5,-18015.5,-17938.0,-17949.0,-17626.0,-18099.5,-18155.0,-18176.5,-18180.0,-17890.0,-17562.0,-18301.0,-18453.5,-18489.5,-18473.0,-18407.5,-18145.5,-18027.5,-18058.5,-18207.0,-18183.0,-18067.5,-18056.5,-18292.0,-18379.5,-18406.0,-18426.5,-18440.5,-18452.0,-18463.0,-18475.0,-18481.5,-18493.5,-18500.5,-18517.0,-18546.0,-18558.5,-18563.0,-18574.5,-18582.0,-18594.0,-18600.5,-18604.5,-18613.0,-18625.5,-18643.5,-18656.0,-18670.0,-18689.0,-18695.5,-18692.5,-18705.0,-18699.0,-18715.0,-18719.0,-18729.5,-18739.5,-18745.5,-18740.5,-18746.5,-18748.5,-18761.0,-18798.0,-18797.5,-18799.0,-18807.5,-18819.5,-18829.0,-18835.5,-18852.0,-18847.0,-18830.0,-18857.0,-18860.0,-18834.0,-18772.0,-18788.0,-18774.0,-18835.5,-18776.0,-18871.0,-18916.5,-18804.5,-18827.5,-18910.5,-18917.0,-18927.5,-18941.0,-18962.0,-18956.0,-18964.0,-18962.5,-18957.0,-18968.5,-18940.0,-18950.5,-18979.0,-18957.5,-18938.0,-18973.5,-18956.5,-18962.5,-18958.0,-18962.5,-18940.0,-18957.0,-18965.5,-18952.5,-18954.5,-18967.5,-18999.5,-18408.5,-18879.0,-18599.5,-18825.5,-18251.0,-18830.0,-18660.5,-18664.5,-18307.5,-18632.5,-18669.5,-18671.5,-18807.0,-18743.0,-18697.0,-18790.0,-18872.5,-18718.5,-18861.5,-18782.5,-18751.5,-18752.5,-18688.5,-18791.5,-18695.5,-18558.0,-18694.0,-18807.0,-18790.0,-18648.5,-18672.0,-18828.5,-18842.0,-18691.5,-18749.0,-18719.5,-18718.5,-18664.5,-18625.0,-18614.5,-18651.5,-18653.5,-18584.5,-18571.0,-18517.0,-18438.5,-18360.0,-18444.0,-18382.0,-18478.0,-18331.0,-18430.0,-18273.5,-18258.5,-18516.5,-18429.0,-18513.0,-18445.5,-18422.5,-18413.0,-18575.0,-18264.0,-18281.0,-18537.0,-18733.0,-18709.5,-18809.0,-18896.5,-18725.0,-18365.5,-18481.0,-18497.5,-18486.0,-18284.5,-18525.5,-18524.5,-18594.0,-18588.0,-18360.5,-18304.0,-18398.0,-18343.0,-18402.0,-18382.0,-18390.5,-18173.0,-18190.5,-18363.0,-18311.0,-18231.0,-18209.0,-18215.5,-18207.0,-17968.5,-18117.0,-17838.0,-18097.0,-17828.0,-17990.0,-17696.0,-18364.0,-17447.0,-17544.0,-17640.0,-17554.5,-17782.0,-18126.5,-18164.0,-18295.0,-18307.0,-18113.0,-18300.0,-18209.0,-18197.0,-18380.0,-18295.5,-18386.5,-17985.5,-18489.0,-18463.5,-18379.0,-18301.5,-18242.5,-18262.5,-18166.5,-18215.5,-18465.0,-18441.5,-18364.0,-18422.0,-18579.0,-18726.0,-18758.0,-18613.5,-18508.5,-18540.0,-18407.5,-18453.5,-18606.0,-18466.0,-18610.5,-18645.5,-18549.5,-18724.5,-18689.5,-18784.0,-18784.0,-18706.5,-18804.5,-18651.5,-18779.0,-18763.5,-18671.0,-18766.0,-18635.5,-18643.5,-18711.0,-18692.5,-18847.0
-32767.0,-32767.0,-32767.0,-32767.0,-32767.0,-32767.0,-32767.0,-32767.0,-32767.0,-32767.0,-32767.0,-32767.0,-32767.0,-32767.0,-32767.0,-32767.0,-32767.0,-32767.0,-32767.0,-32767.0,-32767.0,-32767.0,-32767.0,-32767.0,-32767.0,-32767.0,-32767.0,-32767.0,-32767.0,-32767.0,-32767.0,-32767.0,-32767.0,-32767.0,-32767.0,-32767.0,-32767.0,-32767.0,-32767.0,-32767.0,-32767.0,-32767.0,-32767.0,-32767.0,-32767.0,-32767.0,-32767.0,-32767.0,-32767.0,-32767.0,-32767.0,-32767.0,-32767.0,-32767.0,-32767.0,-32767.0,-32767.0,-32767.0,-32767.0,-32767.0,-32767.0,-32767.0,-32767.0,-32767.0,-32767.0,-32767.0,-32767.0,-32767.0,-32767.0,-32767.0,-32767.0,-32767.0,-32767.0,-32767.0,-32767.0,-32767.0,-32767.0,-32767.0,-32767.0,-32767.0,-32767.0,-32767.0,-32767.0,-32767.0,-32767.0,-32767.0,-32767.0,-32767.0,-32767.0,-32767.0,-32767.0,-32767.0,-32767.0,-32767.0,-32767.0,-32767.0,-32767.0,-32767.0,-32767.0,-32767.0,-32767.0,-32767.0,-32767.0,-32767.0,-32767.0,-32767.0,-32767.0,-32767.0,-32767.0,-32767.0,-32767.0,-32767.0,-32767.0,-32767.0,-32767.0,-32767.0,-32767.0,-32767.0,-32767.0,-32767.0,-32767.0,-32767.0,-32767.0,-32767.0,-32767.0,-32767.0,-32767.0,-32767.0,-32767.0,-32767.0,-32767.0,-32767.0,-32767.0,-32767.0,-32767.0,-32767.0,-32767.0,-32767.0,-32767.0,-32767.0,-32767.0,-32767.0,-32767.0,-32767.0,-32767.0,-32767.0,-32767.0,-32767.0,-32767.0,-32767.0,-32767.0,-32767.0,-32767.0,-32767.0,-32767.0,-32767.0,-32767.0,-32767.0,-32767.0,-32767.0,-32767.0,-32767.0,-32767.0,-32767.0,-32767.0,-32767.0,-32767.0,-32767.0,-32767.0,-32767.0,-32767.0,-32767.0,-32767.0,-32767.0,-32767.0,-32767.0,-32767.0,-32767.0,-32767.0,-32767.0,-32767.0,-32767.0,-32767.0,-32767.0,-32767.0,-32767.0,-32767.0,-32767.0,-32767.0,-32767.0,-32767.0,-32767.0,-32767.0,-32767.0,-32767.0,-32767.0,-32767.0,-32767.0,-32767.0,-32767.0,-32767.0,-32767.0,-32767.0,-32767.0,-32767.0,-32767.0,-32767.0,-32767.0,-32767.0,-32767.0,-32767.0,-32767.0,-32767.0,-32767.0,-32767.0,-32767.0,-32767.0,-32767.0,-32767.0,-32767.0,-32767.0,-32767.0,-32767.0,-32767.0,-32767.0,-32767.0,-32767.0,-32767.0,-32767.0,-32767.0,-32767.0,-32767.0,-32767.0,-32767.0,-32767.0,-32767.0,-32767.0,-32767.0,-32767.0,-32767.0,-32767.0,-32767.0,-32767.0,-32767.0,-32767.0,-32767.0,-32767.0,-32767.0,-32767.0,-32767.0,-32767.0,-32767.0,-32767.0,-32767.0,-32767.0,-32767.0,-32767.0,-32767.0,-32767.0,-32767.0,-32767.0,-32767.0,-32767.0,-32767.0,-32767.0,-32767.0,-32767.0,-32767.0,-32767.0,-32767.0,-32767.0,-32767.0,-32767.0,-32767.0,-32767.0,-32767.0,-32767.0,-32767.0,-32767.0,-32767.0,-32767.0,-32767.0,-32767.0,-32767.0,-32767.0,-32767.0,-32767.0,-32767.0,-32767.0,-32767.0,-32767.0,-32767.0,-32767.0,-32767.0,-32767.0,-32767.0,-32767.0,-32767.0,-32767.0,-32767.0,-32767.0,-32767.0,-32767.0,-32767.0,-32767.0,-32767.0,-32767.0,-32767.0,-32767.0,-32767.0,-32767.0,-32767.0,-32767.0,-32767.0,-32767.0,-32767.0,-32767.0,-32767.0,-32767.0,-32767.0,-32767.0,-32767.0,-32767.0,-32767.0,-32767.0,-32767.0,-32767.0,-32767.0,-32767.0,-32767.0,-32767.0,-32767.0,-32767.0,-32767.0,-32767.0,-32767.0,-32767.0,-32767.0,-32767.0,-32767.0,-32767.0,-32767.0,-32767.0,-32767.0,-32767.0,-32767.0,-32767.0,-32767.0,-32767.0,-32767.0,-32767.0,-32767.0,-32767.0,-32767.0,-32767.0,-32767.0,-32767.0,-32767.0,-32767.0,-32767.0,-32767.0,-32767.0,-32767.0,-32767.0,-32767.0,-32767.0,-32767.0,-32767.0,-32767.0,-32767.0,-32767.0,-32767.0,-32767.0,-32767.0,-32767.0,-32767.0,-32767.0,-32767.0,-32767.0,-32767.0,-32767.0,-32767.0,-32767.0,-32767.0,-32767.0,-32767.0,-32767.0,-32767.0,-32767.0,-32767.0,-32767.0,-32767.0,-32767.0,-32767.0,-32767.0,-32767.0,-32767.0,-32767.0,-32767.0,-32767.0,-32767.0,-32767.0,-32767.0,-32767.0,-32767.0,-32767.0,-32767.0,-32767.0,-32767.0,-32767.0
-16293.0,-16299.5,-16282.5,-16300.5,-16317.5,-16306.5,-16278.0,-16320.5,-16290.5,-16320.5,-16313.0,-16314.0,-16195.0,-16262.0,-16264.0,-16060.5,-16261.0,-16297.5,-16292.5,-16319.5,-16319.5,-16306.5,-16310.0,-16316.5,-16326.0,-16334.0,-16339.5,-16333.0,-16356.0,-16341.5,-16380.5,-16314.0,-16381.5,-16382.0,-16387.0,-16390.5,-16394.0,-16396.5,-16399.5,-16403.5,-16408.0,-16414.0,-16420.5,-16425.5,-16424.5,-16425.5,-16426.0,-16431.0,-16427.0,-16431.5,-16437.0,-16438.5,-16456.5,-16481.0,-16535.5,-16605.0,-16681.5,-16762.5,-16869.0,-16983.5,-17092.0,-17130.0,-17225.5,-17300.0,-17353.0,-17378.5,-17442.0,-17569.0,-17694.5,-17758.0,-17837.5,-17940.0,-18015.0,-18053.5,-18088.0,-18158.0,-18200.0,-18221.5,-18246.5,-18274.5,-18283.5,-18286.5,-18309.5,-18347.5,-18366.0,-18383.5,-18405.0,-18416.5,-18436.0,-18454.0,-18474.5,-18488.5,-18497.5,-18514.5,-18531.0,-18511.0,-18511.0,-18489.5,-18400.5,-18332.5,-18350.5,-18246.0,-18225.5,-18484.5,-18445.0,-18483.5,-18447.0,-18277.5,-17855.5,-17980.5,-18018.0,-18004.5,-17993.5,-18025.0,-17940.5,-18235.0,-18308.0,-18350.0,-18340.0,-18398.5,-18411.5,-18377.0,-18283.5,-18389.0,-18469.0,-18530.0,-18529.5,-18553.5,-18494.5,-18635.0,-18642.5,-18646.5,-18694.5,-18650.5,-18630.0,-18486.5,-18421.0,-18659.5,-18602.0,-18572.5,-18568.5,-18580.5,-18588.5,-18588.5,-18563.0,-18558.5,-18522.5,-18500.5,-18424.0,-18469.5,-18597.0,-18620.5,-18757.5,-18714.5,-18465.5,-18514.5,-18456.5,-18492.5,-18524.5,-18477.5,-18446.5,-18384.5,-18366.0,-18400.0,-18451.0,-18472.5,-18272.0,-18358.5,-18290.5,-18235.5,-18322.5,-18293.0,-18273.5,-18225.0,-18193.0,-18085.5,-18042.5,-18125.0,-18197.5,-18206.0,-18256.0,-18213.5,-18232.0,-18112.0,-18166.0,-18202.0,-17996.5,-17883.5,-18127.0,-18040.0,-18170.5,-18080.0,-18125.0,-17982.5,-17923.0,-17693.5,-18287.0,-17665.0,-17778.5,-17790.5,-18034.0,-17989.0,-18181.0,-18069.0,-18187.0,-18168.5,-18028.0,-18283.5,-18196.5,-18250.5,-18310.5,-18302.0,-18272.0,-18126.0,-18287.0,-18279.0,-18290.5,-18301.5,-18299.5,-18211.0,-18382.0,-18394.0,-18311.5,-18263.5,-18304.0,-18298.5,-18372.0,-18398.5,-18402.5,-18400.0,-18470.0,-18616.0,-18610.5,-18553.0,-18526.0,-18484.0,-18522.0,-18308.0,-18473.0,-18399.0,-18371.5,-18548.0,-18519.5,-18539.0,-18606.0,-18527.0,-18441.5,-18541.0,-18533.0,-18570.0,-18577.0,-18557.0,-18627.0,-18644.5,-18554.5,-18721.5,-18606.0,-18638.0,-18620.5,-18420.5,-18615.0,-18647.0,-18648.5,-18701.5,-18712.0,-18706.0,-18673.0,-18638.0,-18609.5,-18466.5,-18407.0,-18357.0,-18454.0,-18478.0,-18369.0,-18406.0,-18340.0,-18318.0,-18475.0,-18544.5,-18340.0,-18423.5,-18428.5,-18481.0,-18347.0,-18358.0,-18559.0,-18583.0,-18605.5,-18611.0,-18623.5,-18656.0,-18657.5,-18653.5,-18662.0,-18714.0,-18710.0,-18752.5,-18810.5,-18824.5,-18825.5,-18849.5,-18877.0,-18879.5,-18898.0,-18888.5,-18895.0,-18883.0,-18889.0,-18882.0,-18856.5,-18842.5,-18824.5,-18858.5,-18852.0,-18852.0,-18855.0,-18835.5,-18855.5,-18863.0,-18850.5,-18858.0,-18867.0,-18854.0,-18850.5,-18841.0,-18835.5,-18835.0,-18821.0,-18841.0,-18810.5,-18807.0,-18801.0,-18794.5,-18789.0,-18774.0,-18770.5,-18770.0,-18765.0,-18767.0,-18762.5,-18741.0,-18754.0,-18752.0,-18756.5,-18735.0,-18711.0,-18688.0,-18673.0,-18658.0,-18650.5,-18639.5,-18655.5,-18645.0,-18621.5,-18601.0,-18600.5,-18589.0,-18585.5,-18582.5,-18566.5,-18572.5,-18514.5,-18529.5,-18505.5,-18522.0,-18497.0,-18474.5,-18471.0,-18503.5,-18583.0,-18608.5,-18606.5,-18648.0,-18660.5,-18641.5,-18669.5,-18715.5,-18694.0,-18630.0,-18595.5,-18560.5,-18499.0,-18437.5,-18391.5,-18340.0,-18301.0,-18288.0,-18308.5,-18313.0,-18367.0,-18391.5,-18413.5,-18399.5,-18368.0,-18330.5,-18340.5,-18327.5,-18356.5,-18451.5,-18425.0,-18395.5,-18407.5,-18411.0,-18419.5,-18433.5,-18452.5,-18451.0,-18421.5,-18417.5
181.0,168.0,202.0,166.0,132.0,154.0,211.0,126.0,186.0,126.0,141.0,139.0,377.0,243.0,239.0,646.0,245.0,172.0,182.0,128.0,128.0,154.0,147.0,134.0,115.0,99.0,88.0,101.0,55.0,84.0,6.0,139.0,4.0,3.0,-7.0,-14.0,-21.0,-26.0,-32.0,-40.0,-49.0,-61.0,-74.0,-84.0,-82.0,-84.0,-85.0,-95.0,-87.0,-96.0,-107.0,-110.0,-146.0,-195.0,-304.0,-443.0,-596.0,-758.0,-971.0,-1200.0,-1417.0,-1493.0,-1684.0,-1833.0,-1939.0,-1990.0,-2117.0,-2371.0,-2622.0,-2749.0,-2908.0,-3113.0,-3263.0,-3340.0,-3409.0,-3549.0,-3633.0,-3676.0,-3726.0,-3782.0,-3800.0,-3806.0,-3852.0,-3928.0,-3965.0,-4000.0,-4043.0,-4066.0,-4105.0,-4141.0,-4182.0,-4210.0,-4228.0,-4262.0,-4295.0,-4255.0,-4255.0,-4212.0,-4034.0,-3898.0,-3934.0,-3725.0,-3684.0,-4202.0,-4123.0,-4200.0,-4127.0,-3788.0,-2944.0,-3194.0,-3269.0,-3242.0,-3220.0,-3283.0,-3114.0,-3703.0,-3849.0,-3933.0,-3913.0,-4030.0,-4056.0,-3987.0,-3800.0,-4011.0,-4171.0,-4293.0,-4292.0,-4340.0,-4222.0,-4503.0,-4518.0,-4526.0,-4622.0,-4534.0,-4493.0,-4206.0,-4075.0,-4552.0,-4437.0,-4378.0,-4370.0,-4394.0,-4410.0,-4410.0,-4359.0,-4350.0,-4278.0,-4234.0,-4081.0,-4172.0,-4427.0,-4474.0,-4748.0,-4662.0,-4164.0,-4262.0,-4146.0,-4218.0,-4282.0,-4188.0,-4126.0,-4002.0,-3965.0,-4033.0,-4135.0,-4178.0,-3777.0,-3950.0,-3814.0,-3704.0,-3878.0,-3819.0,-3780.0,-3683.0,-3619.0,-3404.0,-3318.0,-3483.0,-3628.0,-3645.0,-3745.0,-3660.0,-3697.0,-3457.0,-3565.0,-3637.0,-3226.0,-3000.0,-3487.0,-3313.0,-3574.0,-3393.0,-3483.0,-3198.0,-3079.0,-2620.0,-3807.0,-2563.0,-2790.0,-2814.0,-3301.0,-3211.0,-3595.0,-3371.0,-3607.0,-3570.0,-3289.0,-3800.0,-3626.0,-3734.0,-3854.0,-3837.0,-3777.0,-3485.0,-3807.0,-3791.0,-3814.0,-3836.0,-3832.0,-3655.0,-3997.0,-4021.0,-3856.0,-3760.0,-3841.0,-3830.0,-3977.0,-4030.0,-4038.0,-4033.0,-4173.0,-4465.0,-4454.0,-4339.0,-4285.0,-4201.0,-4277.0,-3849.0,-4179.0,-4031.0,-3976.0,-4329.0,-4272.0,-4311.0,-4445.0,-4287.0,-4116.0,-4315.0,-4299.0,-4373.0,-4387.0,-4347.0,-4487.0,-4522.0,-4342.0,-4676.0,-4445.0,-4509.0,-4474.0,-4074.0,-4463.0,-4527.0,-4530.0,-4636.0,-4657.0,-4645.0,-4579.0,-4509.0,-4452.0,-4166.0,-4047.0,-3947.0,-4141.0,-4189.0,-3971.0,-4045.0,-3913.0,-3869.0,-4183.0,-4322.0,-3913.0,-4080.0,-4090.0,-4195.0,-3927.0,-3949.0,-4351.0,-4399.0,-4444.0,-4455.0,-4480.0,-4545.0,-4548.0,-4540.0,-4557.0,-4661.0,-4653.0,-4738.0,-4854.0,-4882.0,-4884.0,-4932.0,-4987.0,-4992.0,-5029.0,-5010.0,-5023.0,-4999.0,-5011.0,-4997.0,-4946.0,-4918.0,-4882.0,-4950.0,-4937.0,-4937.0,-4943.0,-4904.0,-4944.0,-4959.0,-4934.0,-4949.0,-4967.0,-4941.0,-4934.0,-4915.0,-4904.0,-4903.0,-4875.0,-4915.0,-4854.0,-4847.0,-4835.0,-4822.0,-4811.0,-4781.0,-4774.0,-4773.0,-4763.0,-4767.0,-4758.0,-4715.0,-4741.0,-4737.0,-4746.0,-4703.0,-4655.0,-4609.0,-4579.0,-4549.0,-4534.0,-4512.0,-4544.0,-4523.0,-4476.0,-4435.0,-4434.0,-4411.0,-4404.0,-4398.0,-4366.0,-4378.0,-4262.0,-4292.0,-4244.0,-4277.0,-4227.0,-4182.0,-4175.0,-4240.0,-4399.0,-4450.0,-4446.0,-4529.0,-4554.0,-4516.0,-4572.0,-4664.0,-4621.0,-4493.0,-4424.0,-4354.0,-4231.0,-4108.0,-4016.0,-3913.0,-3835.0,-3809.0,-3850.0,-3859.0,-3967.0,-4016.0,-4060.0,-4032.0,-3969.0,-3894.0,-3914.0,-3888.0,-3946.0,-4136.0,-4083.0,-4024.0,-4048.0,-4055.0,-4072.0,-4100.0,-4138.0,-4135.0,-4076.0,-4068.0
33.0,24.0,46.0,34.0,37.0,47.0,66.0,51.0,2.0,42.0,57.0,69.0,69.0,60.0,49.0,31.0,39.0,8.0,7.0,-8.0,-15.0,-26.0,-35.0,-47.0,-48.0,-56.0,-58.0,-61.0,-64.0,-67.0,-72.0,-77.0,-83.0,-98.0,-110.0,-195.0,-288.0,-1013.0,-1801.0,-2324.0,-2721.0,-2957.0,-3130.0,-3221.0,-3207.0,-3285.0,-3268.0,-3223.0,-3132.0,-3115.0,-3070.0,-3075.0,-3187.0,-3217.0,-3230.0,-3297.0,-3332.0,-3393.0,-3413.0,-3377.0,-3403.0,-3454.0,-3429.0,-3487.0,-3554.0,-3543.0,-3597.0,-3467.0,-3543.0,-3530.0,-3568.0,-3623.0,-3691.0,-3750.0,-3771.0,-3823.0,-3860.0,-3880.0,-3915.0,-3953.0,-3980.0,-4012.0,-4014.0,-4026.0,-3978.0,-3910.0,-3767.0,-3191.0,-3253.0,-3271.0,-3263.0,-3362.0,-3512.0,-3792.0,-3966.0,-4032.0,-4078.0,-4192.0,-4255.0,-4347.0,-4400.0,-4544.0,-4684.0,-4688.0,-4704.0,-4702.0,-4687.0,-4679.0,-4676.0,-4644.0,-4700.0,-4706.0,-4705.0,-4709.0,-4685.0,-4697.0,-4667.0,-4688.0,-4702.0,-4700.0,-4717.0,-4709.0,-4756.0,-4789.0,-4473.0,-4641.0,-4585.0,-4417.0,-4668.0,-4402.0,-4457.0,-4471.0,-4685.0,-4575.0,-4720.0,-4688.0,-4802.0,-4694.0,-4748.0,-4524.0,-4438.0,-4510.0,-4722.0,-4527.0,-4462.0,-4297.0,-4297.0,-4483.0,-4244.0,-4419.0,-3914.0,-4118.0,-4465.0,-3878.0,-4379.0,-3843.0,-4090.0,-4225.0,-3020.0,-4166.0,-4484.0,-4219.0,-4107.0,-4183.0,-4134.0,-4040.0,-4194.0,-4184.0,-4167.0,-4164.0,-3819.0,-4025.0,-3810.0,-3774.0,-3670.0,-3690.0,-3268.0,-3448.0,-3465.0,-3715.0,-2976.0,-3155.0,-2565.0,-2689.0,-2455.0,-3526.0,-3009.0,-1918.0,-3139.0,-2629.0,-3283.0,-3479.0,-3096.0,-3672.0,-3303.0,-3128.0,-3582.0,-3717.0,-3878.0,-3658.0,-3414.0,-3677.0,-3678.0,-3503.0,-3903.0,-3921.0,-3865.0,-3826.0,-3550.0,-3800.0,-3831.0,-3968.0,-4022.0,-3939.0,-3955.0,-3839.0,-3549.0,-3965.0,-3929.0,-3530.0,-3686.0,-4043.0,-3741.0,-3980.0,-4231.0,-3874.0,-3874.0,-3983.0,-4017.0,-3892.0,-4177.0,-4435.0,-4251.0,-4229.0,-4052.0,-4077.0,-4355.0,-4378.0,-4309.0,-4294.0,-4304.0,-4401.0,-4374.0,-4323.0,-4031.0,-4437.0,-4140.0,-4412.0,-4433.0,-4463.0,-4422.0,-4496.0,-4457.0,-4411.0,-4393.0,-3839.0,-4229.0,-4470.0,-4371.0,-4443.0,-4301.0,-4197.0,-4365.0,-4179.0,-4291.0,-4211.0,-4267.0,-4238.0,-4206.0,-4161.0,-4146.0,-4075.0,-4026.0,-3892.0,-3725.0,-3567.0,-3622.0,-3466.0,-3322.0,-3181.0,-3081.0,-3009.0,-2880.0,-2954.0,-3007.0,-2857.0,-2864.0,-2870.0,-2885.0,-3017.0,-3007.0,-3078.0,-3307.0,-3078.0,-2994.0,-3043.0,-2969.0,-3200.0,-3880.0,-4246.0,-4673.0,-4747.0,-4753.0,-4913.0,-4966.0,-4982.0,-4999.0,-4847.0,-4976.0,-5007.0,-4967.0,-5002.0,-5008.0,-5004.0,-5002.0,-4991.0,-4975.0,-4990.0,-4988.0,-4996.0,-5014.0,-5026.0,-5023.0,-4982.0,-4980.0,-4988.0,-4975.0,-4979.0,-4992.0,-4944.0,-4927.0,-4938.0,-4922.0,-4909.0,-4878.0,-4831.0,-4842.0,-4838.0,-4820.0,-4553.0,-4724.0,-4635.0,-4661.0,-4656.0,-4588.0,-4578.0,-4576.0,-4597.0,-4612.0,-4581.0,-4530.0,-4464.0,-4416.0,-4310.0,-4242.0,-4174.0,-4100.0,-4009.0,-3950.0,-3892.0,-3835.0,-3809.0,-3708.0,-3530.0,-3408.0,-3356.0,-3252.0,-3243.0,-3177.0,-2765.0,-2472.0,-1854.0,-1480.0,-1325.0,-1045.0,-414.0,-82.0,-82.0,-74.0,-20.0,25.0,65.0,67.0,82.0,94.0,92.0,132.0,140.0,177.0,239.0,220.0,255.0,250.0,281.0,220.0,177.0,148.0,126.0,126.0,162.0,163.0,238.0,217.0,161.0,112.0,124.0,71.0,89.0,152.0,107.0
-78.0,-78.0,-79.0,-91.0,-95.0,-86.0,-136.0,-118.0,-110.0,-126.0,-157.0,-96.0,-121.0,-168.0,-209.0,-258.0,-321.0,-399.0,-516.0,-656.0,-801.0,-987.0,-1222.0,-1970.0,-2778.0,-3303.0,-3709.0,-3836.0,-3931.0,-3953.0,-3962.0,-4008.0,-4025.0,-4069.0,-4183.0,-4239.0,-4253.0,-4217.0,-4199.0,-4207.0,-4195.0,-4178.0,-4180.0,-4177.0,-4153.0,-4135.0,-4193.0,-4148.0,-4181.0,-4202.0,-4216.0,-4220.0,-4204.0,-4180.0,-4193.0,-4195.0,-4182.0,-4215.0,-4205.0,-4192.0,-4201.0,-4202.0,-4220.0,-4217.0,-4228.0,-4243.0,-4254.0,-4254.0,-4261.0,-4273.0,-4273.0,-4279.0,-4265.0,-4286.0,-4294.0,-4315.0,-4313.0,-4324.0,-4328.0,-4356.0,-4337.0,-4379.0,-4407.0,-4436.0,-4484.0,-4480.0,-4614.0,-4590.0,-4546.0,-4615.0,-4611.0,-4631.0,-4635.0,-4698.0,-4760.0,-4816.0,-4861.0,-4909.0,-4917.0,-4787.0,-4808.0,-4790.0,-4721.0,-4641.0,-4717.0,-4718.0,-4708.0,-4737.0,-4676.0,-4711.0,-4837.0,-4699.0,-4773.0,-4735.0,-4701.0,-4654.0,-4635.0,-4729.0,-4581.0,-4695.0,-4507.0,-4657.0,-4548.0,-4638.0,-4465.0,-4614.0,-4687.0,-4746.0,-4589.0,-4224.0,-4217.0,-4090.0,-4639.0,-4581.0,-4568.0,-4641.0,-4704.0,-4184.0,-3963.0,-3905.0,-3912.0,-4046.0,-4511.0,-4535.0,-3586.0,-4370.0,-4203.0,-4128.0,-3881.0,-4004.0,-3817.0,-3535.0,-3726.0,-3667.0,-3439.0,-3752.0,-3211.0,-3343.0,-3210.0,-3010.0,-3623.0,-3559.0,-3283.0,-3726.0,-3943.0,-3765.0,-3866.0,-3977.0,-3074.0,-3758.0,-4332.0,-5486.0,-3884.0,-4594.0,-4533.0,-4341.0,-3770.0,-4273.0,-4285.0,-3530.0,-4302.0,-4274.0,-4266.0,-4174.0,-4391.0,-4215.0,-4275.0,-4418.0,-4229.0,-4215.0,-4422.0,-4210.0,-4368.0,-4349.0,-4251.0,-4333.0,-4275.0,-4332.0,-4328.0,-4307.0,-4308.0,-4310.0,-4111.0,-3859.0,-3937.0,-4218.0,-4214.0,-4151.0,-3851.0,-4329.0,-3960.0,-4689.0,-4124.0,-4170.0,-4431.0,-4222.0,-3747.0,-4305.0,-4627.0,-4526.0,-4590.0,-4677.0,-4740.0,-4258.0,-4491.0,-4556.0,-4503.0,-4438.0,-4150.0,-4142.0,-4313.0,-4024.0,-4359.0,-4758.0,-3911.0,-4538.0,-4644.0,-4571.0,-4346.0,-4470.0,-4628.0,-4358.0,-4208.0,-4462.0,-4292.0,-4534.0,-4448.0,-4342.0,-4467.0,-4233.0,-4187.0,-4158.0,-4346.0,-4523.0,-4492.0,-4544.0,-4578.0,-4335.0,-4413.0,-4013.0,-3828.0,-4069.0,-4066.0,-4063.0,-4045.0,-4094.0,-4062.0,-3425.0,-4083.0,-4140.0,-4141.0,-4041.0,-3946.0,-3811.0,-3218.0,-3438.0,-3444.0,-3448.0,-3456.0,-3509.0,-3488.0,-3594.0,-3745.0,-3846.0,-3902.0,-3877.0,-3891.0,-3901.0,-3969.0,-3789.0,-3715.0,-3656.0,-3647.0,-3981.0,-4291.0,-4316.0,-4381.0,-4383.0,-4432.0,-4503.0,-4452.0,-4489.0,-4481.0,-4631.0,-4708.0,-4817.0,-4851.0,-4846.0,-4847.0,-4866.0,-4853.0,-4878.0,-4908.0,-4869.0,-4850.0,-4825.0,-4825.0,-4832.0,-4813.0,-4793.0,-4781.0,-4755.0,-4726.0,-4709.0,-4681.0,-4671.0,-4663.0,-4711.0,-4630.0,-4752.0,-4688.0,-4625.0,-4626.0,-4590.0,-4508.0,-4406.0,-4309.0,-4268.0,-4185.0,-4110.0,-3888.0,-3718.0,-3556.0,-3210.0,-2646.0,-1152.0,-2165.0,-1808.0,-1277.0,-1475.0,-1108.0,-857.0,-521.0,-433.0,-96.0,-67.0,-47.0,-35.0,-21.0,-2.0,5.0,16.0,20.0,21.0,53.0,53.0,105.0,106.0,156.0,152.0,111.0,231.0,291.0,231.0,225.0,204.0,237.0,225.0,212.0,333.0,388.0,319.0,299.0,280.0,270.0,401.0,400.0,360.0,345.0,328.0,312.0,352.0,345.0,337.0,301.0,318.0,311.0,282.0,302.0,238.0,226.0,299.0,268.0,229.0,235.0,227.0,250.0,253.0,197.0,182.0
-3116.0,-3300.0,-3110.0,-2829.0,-2363.0,-2051.0,-1852.0,-1720.0,-1637.0,-1692.0,-1825.0,-2790.0,-4027.0,-4491.0,-4541.0,-4522.0,-4600.0,-4643.0,-4623.0,-4633.0,-4651.0,-4693.0,-4704.0,-4698.0,-4724.0,-4741.0,-4763.0,-4739.0,-4686.0,-4728.0,-4741.0,-4746.0,-4720.0,-4710.0,-4690.0,-4699.0,-4705.0,-4723.0,-4690.0,-4670.0,-4669.0,-4673.0,-4669.0,-4669.0,-4672.0,-4649.0,-4650.0,-4675.0,-4644.0,-4710.0,-4648.0,-4678.0,-4657.0,-4672.0,-4634.0,-4650.0,-4743.0,-4719.0,-4660.0,-4637.0,-4603.0,-4674.0,-4671.0,-4673.0,-4666.0,-4664.0,-4681.0,-4669.0,-4679.0,-4706.0,-4696.0,-4686.0,-4696.0,-4710.0,-4714.0,-4731.0,-4735.0,-4764.0,-4722.0,-4749.0,-4780.0,-4799.0,-4770.0,-4821.0,-4865.0,-4948.0,-4802.0,-4805.0,-4491.0,-4847.0,-4701.0,-4620.0,-4755.0,-4471.0,-4269.0,-4431.0,-4194.0,-4244.0,-4532.0,-4873.0,-4729.0,-4692.0,-4367.0,-4721.0,-4580.0,-4202.0,-4520.0,-4388.0,-4232.0,-4072.0,-4045.0,-4052.0,-4019.0,-3872.0,-3613.0,-4006.0,-3746.0,-3658.0,-3766.0,-3860.0,-3546.0,-3859.0,-3831.0,-2824.0,-2544.0,-3201.0,-3022.0,-3425.0,-3181.0,-3398.0,-3458.0,-3563.0,-3704.0,-3474.0,-3574.0,-3732.0,-3851.0,-3558.0,-3963.0,-3755.0,-3866.0,-3653.0,-3736.0,-3659.0,-3787.0,-3906.0,-4186.0,-4043.0,-3850.0,-4136.0,-4344.0,-4260.0,-4425.0,-4322.0,-3949.0,-4215.0,-4381.0,-4367.0,-4578.0,-4313.0,-4244.0,-4474.0,-4494.0,-4618.0,-4403.0,-4711.0,-4602.0,-4854.0,-4711.0,-4674.0,-4756.0,-4867.0,-4703.0,-5079.0,-5014.0,-4927.0,-4976.0,-4965.0,-4986.0,-5046.0,-4993.0,-5015.0,-5116.0,-4783.0,-4991.0,-4857.0,-4715.0,-4611.0,-4552.0,-4589.0,-4646.0,-4587.0,-4673.0,-4711.0,-4871.0,-4881.0,-4767.0,-4832.0,-5156.0,-4992.0,-5151.0,-5213.0,-4791.0,-4584.0,-4937.0,-5214.0,-5386.0,-4812.0,-5430.0,-5170.0,-5369.0,-5420.0,-5409.0,-5343.0,-5380.0,-5214.0,-5427.0,-5430.0,-5356.0,-5340.0,-5341.0,-5311.0,-5287.0,-5351.0,-5298.0,-5238.0,-5238.0,-5329.0,-5376.0,-5323.0,-5335.0,-5348.0,-5365.0,-5357.0,-5300.0,-5332.0,-5341.0,-5400.0,-5351.0,-5395.0,-5358.0,-5333.0,-5200.0,-5248.0,-5225.0,-5186.0,-5190.0,-5278.0,-5246.0,-5103.0,-5165.0,-5178.0,-5055.0,-4937.0,-4829.0,-4998.0,-4803.0,-4922.0,-4771.0,-4909.0,-4890.0,-5024.0,-5008.0,-5027.0,-4979.0,-5029.0,-5004.0,-4915.0,-4802.0,-4811.0,-4536.0,-4654.0,-4648.0,-4607.0,-4546.0,-4664.0,-4613.0,-4591.0,-4532.0,-4444.0,-4326.0,-3988.0,-1539.0,-1759.0,-2100.0,-2755.0,-4040.0,-4078.0,-4082.0,-3243.0,-1145.0,-3322.0,-3755.0,-2836.0,-1534.0,-1920.0,-4488.0,-4723.0,-4663.0,-4436.0,-4232.0,-4558.0,-4662.0,-4395.0,-4370.0,-4048.0,-3317.0,-4013.0,-4273.0,-4333.0,-4170.0,-4004.0,-3838.0,-4216.0,-3444.0,-3044.0,-2875.0,-2476.0,-2011.0,-1418.0,-1925.0,-1700.0,-1847.0,-1725.0,-1764.0,-2869.0,-1977.0,-1902.0,-1918.0,-1772.0,-1369.0,-1248.0,-861.0,-493.0,-189.0,-105.0,-154.0,-32.0,-47.0,-45.0,-41.0,-34.0,-31.0,-27.0,-24.0,-18.0,-13.0,-8.0,-1.0,6.0,5.0,5.0,47.0,53.0,53.0,93.0,58.0,58.0,76.0,108.0,127.0,143.0,482.0,497.0,415.0,358.0,435.0,415.0,533.0,728.0,539.0,556.0,459.0,493.0,586.0,663.0,538.0,688.0,745.0,792.0,852.0,803.0,842.0,846.0,553.0,663.0,602.0,762.0,669.0,672.0,592.0,640.0,568.0,557.0,491.0,430.0,452.0,411.0,395.0,336.0,380.0,400.0,448.0,366.0,377.0,394.0,368.0,363.0,377.0,334.0
-4423.0,-4443.0,-4482.0,-4506.0,-4526.0,-4561.0,-4586.0,-4583.0,-4609.0,-4630.0,-4670.0,-4661.0,-4708.0,-4761.0,-4861.0,-4768.0,-4778.0,-4801.0,-4831.0,-4855.0,-4874.0,-4886.0,-4877.0,-4948.0,-4934.0,-4937.0,-4942.0,-4937.0,-4933.0,-4960.0,-5020.0,-4954.0,-4981.0,-4935.0,-4940.0,-5060.0,-5077.0,-5094.0,-5011.0,-4943.0,-4947.0,-4945.0,-4935.0,-4908.0,-4892.0,-4938.0,-5047.0,-4926.0,-4922.0,-4926.0,-4945.0,-4950.0,-4949.0,-4931.0,-4936.0,-4928.0,-4921.0,-4962.0,-4964.0,-4941.0,-4916.0,-4918.0,-4904.0,-4904.0,-4882.0,-4788.0,-4680.0,-4673.0,-4706.0,-4683.0,-4925.0,-4941.0,-4795.0,-5020.0,-4972.0,-5049.0,-4957.0,-4966.0,-4953.0,-4964.0,-4253.0,-4424.0,-4079.0,-3832.0,-3621.0,-3033.0,-2434.0,-4252.0,-4403.0,-4741.0,-5138.0,-5168.0,-4996.0,-5174.0,-5182.0,-5187.0,-5199.0,-5186.0,-5176.0,-5181.0,-5180.0,-5186.0,-5155.0,-5188.0,-5192.0,-5189.0,-5194.0,-5206.0,-5212.0,-5196.0,-4953.0,-5203.0,-5215.0,-5217.0,-5212.0,-5207.0,-4994.0,-4790.0,-4556.0,-4868.0,-4670.0,-4452.0,-4901.0,-4892.0,-4804.0,-4685.0,-4426.0,-4673.0,-3772.0,-4285.0,-4201.0,-4776.0,-4635.0,-4303.0,-4748.0,-4782.0,-4756.0,-4860.0,-5054.0,-5006.0,-5121.0,-5282.0,-4834.0,-4923.0,-5271.0,-5290.0,-5074.0,-5192.0,-5406.0,-5425.0,-5393.0,-5485.0,-5023.0,-5230.0,-5229.0,-5005.0,-4958.0,-4908.0,-5329.0,-5377.0,-5224.0,-5478.0,-5512.0,-5508.0,-5599.0,-5467.0,-5484.0,-5194.0,-5661.0,-5456.0,-5502.0,-4794.0,-4963.0,-5158.0,-5153.0,-5374.0,-5718.0,-5365.0,-5619.0,-5427.0,-4868.0,-5139.0,-5632.0,-5757.0,-5037.0,-5656.0,-5247.0,-5424.0,-5604.0,-5662.0,-5400.0,-5818.0,-5668.0,-5591.0,-5751.0,-5795.0,-5538.0,-5692.0,-5642.0,-5557.0,-5674.0,-5423.0,-5655.0,-5802.0,-5549.0,-5552.0,-5567.0,-5636.0,-5729.0,-5791.0,-5785.0,-5925.0,-5853.0,-5833.0,-5823.0,-5798.0,-6011.0,-5832.0,-5713.0,-5756.0,-5832.0,-5899.0,-5866.0,-5726.0,-5599.0,-5511.0,-5251.0,-5497.0,-5615.0,-5832.0,-5896.0,-5863.0,-5633.0,-5706.0,-5777.0,-5825.0,-5853.0,-5724.0,-5448.0,-5453.0,-5470.0,-5658.0,-5661.0,-5620.0,-5744.0,-5630.0,-5535.0,-5426.0,-5383.0,-5451.0,-5499.0,-5414.0,-5309.0,-5218.0,-5263.0,-5291.0,-5269.0,-5326.0,-5256.0,-5274.0,-5247.0,-5221.0,-5187.0,-5203.0,-5200.0,-5165.0,-5148.0,-5184.0,-5180.0,-5164.0,-5169.0,-5108.0,-5136.0,-5154.0,-5153.0,-5106.0,-5123.0,-5115.0,-5098.0,-5117.0,-5158.0,-5143.0,-5125.0,-5099.0,-5094.0,-5043.0,-4987.0,-4926.0,-5000.0,-4912.0,-4872.0,-4833.0,-4800.0,-4747.0,-4732.0,-4666.0,-4583.0,-4552.0,-4543.0,-4518.0,-4422.0,-4356.0,-4325.0,-4247.0,-4215.0,-4304.0,-4110.0,-4010.0,-3831.0,-3645.0,-3403.0,-2858.0,-1935.0,-1067.0,-507.0,-250.0,-202.0,-156.0,-102.0,-60.0,-41.0,-25.0,-13.0,-9.0,-13.0,-5.0,-17.0,-18.0,-9.0,-28.0,-17.0,-1.0,-1.0,-7.0,11.0,-5.0,3.0,7.0,3.0,33.0,31.0,196.0,84.0,110.0,227.0,295.0,315.0,444.0,268.0,587.0,599.0,351.0,366.0,477.0,300.0,702.0,951.0,1070.0,743.0,745.0,915.0,875.0,613.0,670.0,648.0,549.0,829.0,499.0,597.0,722.0,423.0,439.0,421.0,417.0,421.0,411.0,405.0,424.0,422.0,409.0,359.0,400.0,375.0,398.0,405.0,385.0,414.0,369.0,429.0,417.0,407.0,392.0,394.0,400.0,358.0,363.0,356.0,360.0,379.0,367.0,336.0,349.0,334.0,360.0,326.0,333.0,338.0,312.0,373.0,355.0
